ply
format ascii 1.0
comment Created by Open3D
element vertex 1335
property double x
property double y
property double z
property uchar red
property uchar green
property uchar blue
end_header
-0.394403 -0.0296267 -0.193031 0 0 255
-0.394753 -0.0295397 0.294531 0 0 255
-0.402377 -0.0283906 -0.256097 0 0 255
-0.399359 -0.0286288 0.175948 0 0 255
-0.401426 -0.0284656 0.439436 0 0 255
-0.40613 -0.0283553 -0.147766 0 0 255
-0.408257 -0.0285401 0.429555 0 0 255
-0.413388 -0.0293694 -0.135246 0 0 255
-0.412105 -0.0290391 0.469783 0 0 255
-0.413728 -0.029457 0.253007 0 0 255
-0.418554 -0.0308885 -0.0777604 0 0 255
-0.419219 -0.0311838 0.375822 0 0 255
-0.392708 -0.0290309 0.475043 0 0 255
-0.433435 -0.102435 0.498812 0 0 255
-0.366642 -0.0437889 0.482776 0 0 255
-0.44611 -0.0121597 0.578528 0 0 255
-0.453862 -0.0189489 0.660504 0 0 255
-0.458609 -0.0242804 0.678382 0 0 255
-0.471396 -0.0485636 0.527813 0 0 255
-0.472481 -0.0522691 0.626183 0 0 255
-0.474168 -0.0661407 0.501721 0 0 255
-0.473617 -0.0773105 0.643957 0 0 255
-0.470109 -0.0916509 0.650839 0 0 255
-0.460331 -0.109944 0.547198 0 0 255
-0.454904 -0.116569 0.650684 0 0 255
-0.439957 -0.128303 0.520184 0 0 255
-0.430552 -0.132915 0.638168 0 0 255
-0.41861 -0.136571 0.640792 0 0 255
-0.402752 -0.138099 0.649226 0 0 255
-0.387429 -0.135885 0.575237 0 0 255
-0.374505 -0.131275 0.556433 0 0 255
-0.363268 -0.12466 0.637276 0 0 255
-0.353183 -0.115862 0.624027 0 0 255
-0.343741 -0.10272 0.544993 0 0 255
-0.339395 -0.093756 0.593229 0 0 255
-0.335717 -0.0804914 0.580301 0 0 255
-0.334653 -0.0641315 0.605188 0 0 255
-0.336422 -0.0518587 0.585542 0 0 255
-0.339812 -0.0415562 0.664532 0 0 255
-0.347713 -0.0274521 0.501143 0 0 255
-0.359077 -0.0151339 0.50139 0 0 255
-0.367696 -0.00887508 0.60326 0 0 255
-0.373517 -0.00557332 0.671336 0 0 255
-0.388344 -0.000325021 0.649475 0 0 255
-0.414114 0.00096137 0.522813 0 0 255
-0.4171 0.000547476 0.622659 0 0 255
-0.432142 -0.00420897 0.622957 0 0 255
-0.400177 -0.144639 0.686296 0 0 255
-0.465873 -0.141586 0.706865 0 0 255
-0.500211 -0.0872315 0.709032 0 0 255
-0.480011 -0.0223228 0.69901 0 0 255
-0.426676 0.0169903 0.698739 0 0 255
-0.364031 0.0163238 0.704708 0 0 255
-0.328749 -0.02946 0.695404 0 0 255
-0.330456 -0.0897265 0.686764 0 0 255
-0.361506 -0.143793 0.69727 0 0 255
-0.490249 -0.042029 0.827601 0 0 255
-0.490274 -0.0982072 0.82626 0 0 255
-0.441893 -0.130674 0.845781 0 0 255
-0.37439 -0.1612 0.8192 0 0 255
-0.334815 -0.130817 0.82371 0 0 255
-0.327727 -0.066406 0.841615 0 0 255
-0.34065 0.00398323 0.820516 0 0 255
-0.401668 0.0194433 0.829868 0 0 255
-0.373663 -0.142464 0.860417 0 0 255
-0.433467 -0.1411 0.858372 0 0 255
-0.4724 -0.104826 0.857079 0 0 255
-0.478509 -0.0497399 0.855889 0 0 255
-0.453888 0.0159549 0.878892 0 0 255
-0.396151 0.00275978 0.850822 0 0 255
-0.33012 -0.00889445 0.876249 0 0 255
-0.311552 -0.069945 0.873863 0 0 255
-0.335756 -0.127944 0.871706 0 0 255
-0.474249 -0.00947188 0.996013 0 0 255
-0.484995 -0.0728727 1.00738 0 0 255
-0.464832 -0.143582 0.99041 0 0 255
-0.406227 -0.161807 0.993592 0 0 255
-0.359487 -0.131352 1.01081 0 0 255
-0.310333 -0.0889438 0.990656 0 0 255
-0.329507 -0.0255284 1.00139 0 0 255
-0.373177 0.0155388 0.998085 0 0 255
-0.435908 0.00833368 1.00508 0 0 255
-0.411376 -0.145874 1.02787 0 0 255
-0.463672 -0.121369 1.02946 0 0 255
-0.49892 -0.0637097 1.04565 0 0 255
-0.467496 -0.0202941 1.02923 0 0 255
-0.413067 0.0210715 1.04049 0 0 255
-0.349294 0.0117436 1.04841 0 0 255
-0.333324 -0.0439075 1.02481 0 0 255
-0.32639 -0.110318 1.03935 0 0 255
-0.450051 -0.00536657 1.18062 0 0 255
-0.479441 -0.0435834 1.17914 0 0 255
-0.488814 -0.108788 1.1635 0 0 255
-0.433398 -0.148597 1.17237 0 0 255
-0.373761 -0.151571 1.16878 0 0 255
-0.321271 -0.113336 1.16237 0 0 255
-0.328272 -0.0527214 1.18057 0 0 255
-0.356852 0.0108628 1.1649 0 0 255
-0.409311 0.00471225 1.18548 0 0 255
-0.443461 -0.0104139 1.31985 0 0 255
-0.460074 -0.0261784 1.23183 0 0 255
-0.466703 -0.0367903 1.24324 0 0 255
-0.47149 -0.0488424 1.28385 0 0 255
-0.474173 -0.0648971 1.2889 0 0 255
-0.473276 -0.0793034 1.33235 0 0 255
-0.464482 -0.103746 1.19464 0 0 255
-0.459045 -0.111583 1.32512 0 0 255
-0.447145 -0.123647 1.23999 0 0 255
-0.432107 -0.13224 1.27526 0 0 255
-0.416989 -0.136975 1.30476 0 0 255
-0.403627 -0.138175 1.31665 0 0 255
-0.386553 -0.13566 1.33808 0 0 255
-0.36503 -0.125821 1.23387 0 0 255
-0.359676 -0.121887 1.32457 0 0 255
-0.344378 -0.103908 1.24354 0 0 255
-0.337616 -0.0885066 1.29147 0 0 255
-0.335599 -0.0797646 1.31223 0 0 255
-0.33582 -0.0553806 1.21195 0 0 255
-0.340048 -0.0408758 1.2564 0 0 255
-0.348826 -0.0260332 1.20876 0 0 255
-0.360341 -0.0139796 1.30282 0 0 255
-0.37383 -0.00543726 1.29416 0 0 255
-0.391214 0.000389763 1.25857 0 0 255
-0.412833 0.00107264 1.22867 0 0 255
-0.421291 -0.000531611 1.24053 0 0 255
-0.435896 -0.0058732 1.2652 0 0 255
-0.412698 -0.0917761 1.24045 0 0 255
-0.429018 -0.0720576 1.25601 0 0 255
-0.422163 -0.0507143 1.25666 0 0 255
-0.398525 -0.0440055 1.26919 0 0 255
-0.381008 -0.0596274 1.26955 0 0 255
-0.385471 -0.0844722 1.30018 0 0 255
-0.369554 -0.0827465 -0.425948 0 0 255
-0.461806 -0.0698791 0.499052 0 0 255
-0.396948 -0.0162363 0.499052 0 0 255
-0.358298 -0.0821924 0.499052 0 0 255
-0.455862 -0.11333 1.33905 0 0 255
-0.39296 -0.110828 1.33905 0 0 255
-0.353195 -0.0781879 1.33905 0 0 255
-0.380563 -0.0302504 1.33905 0 0 255
-0.434334 -0.0317594 1.33905 0 0 255
-0.436107 -0.0795156 1.33905 0 0 255
-0.321157 0.0265402 0.720224 0 0 255
-0.313064 0.0184475 0.788522 0 0 255
-0.305398 -0.0423863 0.734568 0 0 255
-0.305398 -0.0958292 0.733729 0 0 255
-0.305398 -0.0828518 0.74164 0 0 255
-0.305398 -0.127018 0.755354 0 0 255
-0.305398 -0.0649069 0.807853 0 0 255
-0.305398 -0.0884706 0.786211 0 0 255
-0.305398 -0.103277 0.803801 0 0 255
-0.321346 -0.163166 0.780918 0 0 255
-0.394795 -0.167218 0.747127 0 0 255
-0.39504 -0.167218 0.729437 0 0 255
-0.34662 -0.167218 0.737268 0 0 255
-0.420019 -0.167218 0.813214 0 0 255
-0.46975 -0.167218 0.756698 0 0 255
-0.370957 -0.167218 0.799812 0 0 255
-0.419715 -0.167218 0.806138 0 0 255
-0.497225 -0.153391 0.759129 0 0 255
-0.448505 0.0307816 0.805594 0 0 255
-0.436055 0.0307816 0.790144 0 0 255
-0.381168 0.0307816 0.807764 0 0 255
-0.325498 0.0307816 0.782892 0 0 255
-0.424258 0.0307816 0.741627 0 0 255
-0.351361 0.0307816 0.723079 0 0 255
-0.349682 0.0307816 0.714803 0 0 255
-0.503398 -0.090886 0.772394 0 0 255
-0.503398 -0.145631 0.811723 0 0 255
-0.503398 -0.0876798 0.751467 0 0 255
-0.503398 -0.0068742 0.710271 0 0 255
-0.503398 -0.0493537 0.775613 0 0 255
-0.503398 -0.021432 0.792721 0 0 255
-0.503398 -0.0602724 0.759233 0 0 255
-0.315882 -0.126139 0.709052 0 0 255
-0.478437 -0.157375 0.709052 0 0 255
-0.329892 0.00833868 0.709052 0 0 255
-0.484299 -0.0114507 0.709052 0 0 255
-0.46433 0.0272012 0.819052 0 0 255
-0.499401 -0.0019245 0.819052 0 0 255
-0.462645 -0.151982 0.819052 0 0 255
-0.500952 0.013228 0.790224 0 0 255
-0.306949 0.0123322 0.937399 0 0 255
-0.305398 -0.0729824 0.894457 0 0 255
-0.305398 -0.0624301 0.936875 0 0 255
-0.305398 0.00833648 0.926039 0 0 255
-0.305398 -0.00682443 0.969353 0 0 255
-0.305398 -0.13194 0.978848 0 0 255
-0.305398 -0.0525492 0.980162 0 0 255
-0.305398 -0.140662 0.958742 0 0 255
-0.30904 -0.15086 0.936761 0 0 255
-0.307991 -0.149811 0.984675 0 0 255
-0.373215 -0.167218 0.895647 0 0 255
-0.33116 -0.167218 0.942797 0 0 255
-0.328138 -0.167218 0.956563 0 0 255
-0.388325 -0.167218 0.947056 0 0 255
-0.472498 -0.167218 0.95669 0 0 255
-0.450657 -0.167218 0.950394 0 0 255
-0.468202 -0.167218 0.961581 0 0 255
-0.493693 -0.156924 0.956819 0 0 255
-0.365866 0.0307816 0.944541 0 0 255
-0.33899 0.0307816 0.946039 0 0 255
-0.354339 0.0307816 0.912156 0 0 255
-0.468172 0.0307816 0.954735 0 0 255
-0.439305 0.0307816 0.925222 0 0 255
-0.436402 0.0307816 0.946765 0 0 255
-0.380659 0.0307816 0.893664 0 0 255
-0.503398 -0.081862 0.914109 0 0 255
-0.503398 -0.131016 0.951297 0 0 255
-0.503398 -0.101677 0.903568 0 0 255
-0.503398 -0.0480576 0.985604 0 0 255
-0.503398 0.000209236 0.926072 0 0 255
-0.503398 -0.0697927 0.979317 0 0 255
-0.503398 -0.0668719 0.943893 0 0 255
-0.488886 -0.15195 0.879052 0 0 255
-0.329211 -0.140047 0.879052 0 0 255
-0.44372 0.0283531 0.879052 0 0 255
-0.3284 -0.14916 0.989052 0 0 255
-0.490304 -0.118044 0.989052 0 0 255
-0.459964 -0.152803 0.989052 0 0 255
-0.310695 0.0101978 0.989052 0 0 255
-0.49028 0.0238997 0.977002 0 0 255
-0.320539 0.0259225 1.11773 0 0 255
-0.305398 -0.0202242 1.13413 0 0 255
-0.305398 -0.0372542 1.09799 0 0 255
-0.305398 0.00400235 1.08653 0 0 255
-0.305398 -0.0157213 1.07135 0 0 255
-0.305398 -0.0847569 1.12111 0 0 255
-0.305398 -0.0996528 1.13226 0 0 255
-0.305398 -0.130346 1.11143 0 0 255
-0.306453 -0.148273 1.05191 0 0 255
-0.431181 -0.167218 1.06623 0 0 255
-0.348922 -0.167218 1.0669 0 0 255
-0.406389 -0.167218 1.07459 0 0 255
-0.395663 -0.167218 1.07223 0 0 255
-0.480667 -0.167218 1.06879 0 0 255
-0.464406 -0.167218 1.11337 0 0 255
-0.343722 -0.167218 1.14782 0 0 255
-0.499259 -0.151358 1.07925 0 0 255
-0.483921 -0.166696 1.08151 0 0 255
-0.327448 0.0307816 1.0726 0 0 255
-0.354764 0.0307816 1.12316 0 0 255
-0.326577 0.0307816 1.13076 0 0 255
-0.365777 0.0307816 1.07376 0 0 255
-0.455554 0.0307816 1.10393 0 0 255
-0.440255 0.0307816 1.12557 0 0 255
-0.410783 0.0307816 1.06324 0 0 255
-0.503398 -0.0267637 1.05143 0 0 255
-0.503398 -0.0657742 1.08661 0 0 255
-0.503398 -0.0892644 1.09587 0 0 255
-0.503398 -0.00010158 1.11899 0 0 255
-0.503398 -0.0158679 1.12832 0 0 255
-0.503398 -0.0866423 1.1456 0 0 255
-0.503398 -0.027341 1.15426 0 0 255
-0.309318 -0.139683 1.04905 0 0 255
-0.492587 0.0106439 1.04905 0 0 255
-0.314284 -0.00258688 1.04905 0 0 255
-0.332054 -0.161085 1.15905 0 0 255
-0.49178 0.00920439 1.15905 0 0 255
-0.305926 -0.0805019 1.15905 0 0 255
-0.496213 0.017967 1.07492 0 0 255
-0.485786 0.0283939 1.12502 0 0 255
-0.381864 -0.0963434 -0.430881 0 0 255
-0.378409 -0.0963434 -0.523162 0 0 255
-0.400363 -0.0963434 -0.562359 0 0 255
-0.432524 -0.0512865 -0.457294 0 0 255
-0.432524 -0.0411782 -0.43053 0 0 255
-0.432524 -0.077279 -0.512644 0 0 255
-0.379968 -0.0400934 -0.431308 0 0 255
-0.418846 -0.0400934 -0.436234 0 0 255
-0.401646 -0.0400934 -0.539258 0 0 255
-0.417744 -0.0400934 -0.536645 0 0 255
-0.376274 -0.0922538 -0.493577 0 0 255
-0.376274 -0.0707423 -0.516711 0 0 255
-0.376274 -0.0558494 -0.536243 0 0 255
-0.392038 -0.0426522 -0.575948 0 0 255
-0.818665 -0.0899717 -0.191382 0 0 255
-0.818048 -0.0895652 0.110552 0 0 255
-0.821552 -0.0918745 -0.0813929 0 0 255
-0.822276 -0.092527 0.253286 0 0 255
-0.825864 -0.0958567 -0.0144875 0 0 255
-0.828647 -0.0992412 -0.205745 0 0 255
-0.828249 -0.0987249 0.0863628 0 0 255
-0.827261 -0.0974451 0.342035 0 0 255
-0.831467 -0.103445 0.00392667 0 0 255
-0.833587 -0.107398 -0.086117 0 0 255
-0.833905 -0.108299 -0.374871 0 0 255
-0.83509 -0.111796 -0.0177945 0 0 255
-0.836487 -0.118294 -0.25005 0 0 255
-0.835952 -0.115009 0.236433 0 0 255
-0.836518 -0.11848 0.293265 0 0 255
-0.836801 -0.121166 0.208689 0 0 255
-0.836784 -0.125568 -0.00559458 0 0 255
-0.835838 -0.132351 -0.3347 0 0 255
-0.835876 -0.132128 0.0222169 0 0 255
-0.835826 -0.132424 -0.264253 0 0 255
-0.835602 -0.133542 -0.211166 0 0 255
-0.8335 -0.139589 0.00758684 0 0 255
-0.83263 -0.141186 -0.292544 0 0 255
-0.830393 -0.14528 -0.113914 0 0 255
-0.830088 -0.145705 -0.0595228 0 0 255
-0.82805 -0.148302 -0.294802 0 0 255
-0.826454 -0.150336 0.385296 0 0 255
-0.825663 -0.151132 -0.0170585 0 0 255
-0.821585 -0.154857 0.349914 0 0 255
-0.818506 -0.156907 -0.311951 0 0 255
-0.817205 -0.15775 0.212691 0 0 255
-0.819099 -0.156523 0.177446 0 0 255
-0.812942 -0.159894 0.039102 0 0 255
-0.813457 -0.159671 0.415189 0 0 255
-0.806765 -0.16202 -0.134853 0 0 255
-0.804432 -0.162601 0.148507 0 0 255
-0.802727 -0.162918 0.202413 0 0 255
-0.80112 -0.163045 -0.273633 0 0 255
-0.797039 -0.163367 -0.344379 0 0 255
-0.792985 -0.163059 -0.175602 0 0 255
-0.793647 -0.163117 0.176049 0 0 255
-0.787544 -0.162136 -0.111746 0 0 255
-0.786025 -0.161745 0.0362081 0 0 255
-0.786421 -0.161847 0.364577 0 0 255
-0.78195 -0.160353 -0.258349 0 0 255
-0.778449 -0.158801 0.311037 0 0 255
-0.776976 -0.157981 -0.172063 0 0 255
-0.772879 -0.155281 0.449349 0 0 255
-0.770523 -0.153268 0.0913676 0 0 255
-0.771067 -0.153773 -0.399601 0 0 255
-0.7684 -0.151298 0.151447 0 0 255
-0.765 -0.147263 -0.280548 0 0 255
-0.764178 -0.146199 0.35296 0 0 255
-0.762107 -0.142805 0.0179079 0 0 255
-0.760839 -0.140438 -0.114175 0 0 255
-0.760363 -0.13955 -0.266401 0 0 255
-0.75939 -0.136819 -0.019825 0 0 255
-0.758549 -0.134339 -0.225559 0 0 255
-0.758007 -0.132399 0.291071 0 0 255
-0.75739 -0.128609 0.149015 0 0 255
-0.757055 -0.125849 -0.220699 0 0 255
-0.757072 -0.121642 -0.0668876 0 0 255
-0.757061 -0.124427 0.331166 0 0 255
-0.757177 -0.119353 -0.070502 0 0 255
-0.757391 -0.118102 0.468467 0 0 255
-0.758317 -0.113055 0.285553 0 0 255
-0.759946 -0.108371 -0.0448624 0 0 255
-0.761798 -0.104546 -0.267917 0 0 255
-0.761282 -0.105491 0.198056 0 0 255
-0.763244 -0.1019 0.261169 0 0 255
-0.763964 -0.100823 -0.0859443 0 0 255
-0.766332 -0.0978051 0.208152 0 0 255
-0.768228 -0.0956135 -0.39838 0 0 255
-0.771049 -0.0930373 0.170434 0 0 255
-0.770954 -0.0931241 -0.130454 0 0 255
-0.776893 -0.0888709 -0.37939 0 0 255
-0.777612 -0.0884053 0.200236 0 0 255
-0.781491 -0.0866327 -0.120359 0 0 255
-0.783219 -0.0858825 -0.112984 0 0 255
-0.786782 -0.0848344 0.0312545 0 0 255
-0.784152 -0.0854892 0.26846 0 0 255
-0.788761 -0.0843414 0.21922 0 0 255
-0.791826 -0.0838037 -0.209623 0 0 255
-0.791381 -0.0838388 0.411272 0 0 255
-0.798486 -0.0835101 0.128681 0 0 255
-0.801424 -0.0837653 0.0489317 0 0 255
-0.802641 -0.083871 -0.26431 0 0 255
-0.804764 -0.0842422 0.12148 0 0 255
-0.809026 -0.0853397 0.150963 0 0 255
-0.810633 -0.0858586 -0.0641919 0 0 255
-0.81511 -0.0878437 -0.120313 0 0 255
-0.812792 -0.163199 0.477034 0 0 255
-0.841761 -0.119677 0.487643 0 0 255
-0.757749 -0.145222 0.487029 0 0 255
-0.835513 -0.0652687 0.510802 0 0 255
-0.843522 -0.071456 0.55326 0 0 255
-0.851304 -0.0796645 0.504177 0 0 255
-0.860811 -0.0949038 0.66095 0 0 255
-0.864471 -0.105342 0.604237 0 0 255
-0.866693 -0.122629 0.530719 0 0 255
-0.866649 -0.129545 0.515646 0 0 255
-0.861848 -0.149093 0.528162 0 0 255
-0.856822 -0.159263 0.616283 0 0 255
-0.852966 -0.164981 0.657893 0 0 255
-0.834247 -0.182333 0.501737 0 0 255
-0.821948 -0.188577 0.528795 0 0 255
-0.815088 -0.190758 0.521309 0 0 255
-0.799378 -0.193173 0.654116 0 0 255
-0.786378 -0.192496 0.520292 0 0 255
-0.779867 -0.191032 0.629903 0 0 255
-0.756911 -0.180564 0.549914 0 0 255
-0.753438 -0.1782 0.538406 0 0 255
-0.73928 -0.162873 0.65499 0 0 255
-0.733526 -0.152769 0.582478 0 0 255
-0.732056 -0.149313 0.663368 0 0 255
-0.727147 -0.12848 0.513697 0 0 255
-0.728026 -0.112444 0.562089 0 0 255
-0.729862 -0.103857 0.66185 0 0 255
-0.734129 -0.0928328 0.660804 0 0 255
-0.744081 -0.0777308 0.61164 0 0 255
-0.760274 -0.0640142 0.565476 0 0 255
-0.764749 -0.0613064 0.501421 0 0 255
-0.783652 -0.0548031 0.600267 0 0 255
-0.791105 -0.0538702 0.673351 0 0 255
-0.799772 -0.0536119 0.671091 0 0 255
-0.820214 -0.0574025 0.650325 0 0 255
-0.774366 -0.205805 0.695908 0 0 255
-0.83064 -0.203165 0.697159 0 0 255
-0.875586 -0.160499 0.697392 0 0 255
-0.865639 -0.106131 0.67997 0 0 255
-0.842484 -0.0580434 0.689663 0 0 255
-0.784219 -0.0396132 0.694915 0 0 255
-0.744349 -0.0746255 0.680887 0 0 255
-0.713731 -0.129789 0.69347 0 0 255
-0.733914 -0.187708 0.700823 0 0 255
-0.862985 -0.0667624 0.830635 0 0 255
-0.884744 -0.126982 0.829628 0 0 255
-0.863964 -0.191133 0.821671 0 0 255
-0.805573 -0.199472 0.841777 0 0 255
-0.749428 -0.188248 0.837728 0 0 255
-0.715924 -0.140509 0.835138 0 0 255
-0.725529 -0.077335 0.832951 0 0 255
-0.767854 -0.049742 0.838976 0 0 255
-0.835238 -0.0429244 0.828276 0 0 255
-0.806906 -0.209987 0.867709 0 0 255
-0.859165 -0.177521 0.862618 0 0 255
-0.874615 -0.125684 0.857583 0 0 255
-0.859956 -0.0671812 0.864617 0 0 255
-0.805409 -0.0382311 0.866051 0 0 255
-0.748135 -0.058498 0.861125 0 0 255
-0.718796 -0.100903 0.861332 0 0 255
-0.720319 -0.167788 0.869195 0 0 255
-0.85044 -0.0531879 0.999377 0 0 255
-0.89128 -0.108535 0.991368 0 0 255
-0.879847 -0.166812 0.993437 0 0 255
-0.829238 -0.1973 1.00733 0 0 255
-0.765429 -0.205629 0.999498 0 0 255
-0.718617 -0.165477 0.998471 0 0 255
-0.724003 -0.112398 1.01478 0 0 255
-0.742086 -0.0472458 0.993291 0 0 255
-0.804257 -0.0470942 1.01165 0 0 255
-0.783259 -0.207423 1.03533 0 0 255
-0.847075 -0.203324 1.04549 0 0 255
-0.874513 -0.143452 1.02992 0 0 255
-0.876354 -0.087622 1.03748 0 0 255
-0.841082 -0.0389388 1.04629 0 0 255
-0.775475 -0.0547597 1.02122 0 0 255
-0.715637 -0.0836019 1.04126 0 0 255
-0.723753 -0.131559 1.02311 0 0 255
-0.749551 -0.2003 1.04112 0 0 255
-0.872921 -0.0835944 1.17183 0 0 255
-0.869265 -0.13491 1.18531 0 0 255
-0.84335 -0.206881 1.16158 0 0 255
-0.793041 -0.218705 1.1616 0 0 255
-0.733729 -0.185563 1.16884 0 0 255
-0.704438 -0.117598 1.16459 0 0 255
-0.742777 -0.0741846 1.1856 0 0 255
-0.782778 -0.0536048 1.18758 0 0 255
-0.830595 -0.0620281 1.31101 0 0 255
-0.847234 -0.0749003 1.23734 0 0 255
-0.854647 -0.0839948 1.22984 0 0 255
-0.862352 -0.0990912 1.19189 0 0 255
-0.866454 -0.116303 1.32212 0 0 255
-0.865924 -0.133789 1.22751 0 0 255
-0.862293 -0.147814 1.24922 0 0 255
-0.854811 -0.162629 1.30858 0 0 255
-0.840001 -0.178528 1.29348 0 0 255
-0.826071 -0.186788 1.20565 0 0 255
-0.812932 -0.191295 1.20693 0 0 255
-0.800822 -0.193059 1.31749 0 0 255
-0.777186 -0.190341 1.20167 0 0 255
-0.764191 -0.185184 1.33416 0 0 255
-0.753453 -0.178215 1.29709 0 0 255
-0.740041 -0.163859 1.28827 0 0 255
-0.732452 -0.150481 1.23956 0 0 255
-0.728383 -0.136493 1.26552 0 0 255
-0.727184 -0.119143 1.28223 0 0 255
-0.73085 -0.101016 1.22863 0 0 255
-0.73734 -0.0869558 1.31808 0 0 255
-0.750319 -0.0714798 1.24382 0 0 255
-0.762048 -0.0628651 1.23189 0 0 255
-0.774827 -0.0570006 1.22183 0 0 255
-0.790151 -0.0539454 1.30914 0 0 255
-0.808607 -0.0543793 1.19847 0 0 255
-0.820461 -0.0575117 1.20911 0 0 255
-0.799482 -0.148179 1.33791 0 0 255
-0.818899 -0.135139 1.29444 0 0 255
-0.81827 -0.110466 1.33797 0 0 255
-0.799342 -0.0985896 1.28438 0 0 255
-0.778028 -0.107116 1.29154 0 0 255
-0.773424 -0.131657 1.32326 0 0 255
-0.820847 -0.0932636 -0.425948 0 0 255
-0.847128 -0.169421 0.499052 0 0 255
-0.829623 -0.0655933 0.499052 0 0 255
-0.745208 -0.102982 0.499052 0 0 255
-0.781145 -0.186157 0.499052 0 0 255
-0.817781 -0.100375 1.33905 0 0 255
-0.847542 -0.140752 1.33905 0 0 255
-0.797739 -0.1725 1.33905 0 0 255
-0.76749 -0.13692 1.33905 0 0 255
-0.749911 -0.0800196 1.33905 0 0 255
-0.785244 -0.139744 1.23905 0 0 255
-0.709683 -0.0326336 0.770378 0 0 255
-0.697928 -0.0949262 0.742888 0 0 255
-0.697928 -0.0814111 0.73254 0 0 255
-0.697928 -0.113558 0.756547 0 0 255
-0.697928 -0.0883678 0.727203 0 0 255
-0.697928 -0.178257 0.816407 0 0 255
-0.697928 -0.194169 0.793089 0 0 255
-0.697928 -0.142252 0.817392 0 0 255
-0.707737 -0.212197 0.723694 0 0 255
-0.738357 -0.222388 0.787979 0 0 255
-0.729169 -0.222388 0.714267 0 0 255
-0.742072 -0.222388 0.768786 0 0 255
-0.785841 -0.222388 0.746215 0 0 255
-0.828463 -0.222388 0.758359 0 0 255
-0.858044 -0.222388 0.726653 0 0 255
-0.756335 -0.222388 0.817447 0 0 255
-0.895849 -0.202468 0.814393 0 0 255
-0.878626 -0.219691 0.730857 0 0 255
-0.734539 -0.0243884 0.75282 0 0 255
-0.750708 -0.0243884 0.805061 0 0 255
-0.761891 -0.0243884 0.766457 0 0 255
-0.854474 -0.0243884 0.73285 0 0 255
-0.859575 -0.0243884 0.71205 0 0 255
-0.777197 -0.0243884 0.740044 0 0 255
-0.842753 -0.0243884 0.788218 0 0 255
-0.895928 -0.140502 0.740836 0 0 255
-0.895928 -0.167122 0.724211 0 0 255
-0.895928 -0.200824 0.780076 0 0 255
-0.895928 -0.0884202 0.783925 0 0 255
-0.895928 -0.0559435 0.731751 0 0 255
-0.895928 -0.124082 0.788912 0 0 255
-0.895928 -0.0616298 0.795156 0 0 255
-0.700283 -0.0464793 0.709052 0 0 255
-0.884099 -0.189778 0.709052 0 0 255
-0.875409 -0.0330106 0.709052 0 0 255
-0.886921 -0.168515 0.819052 0 0 255
-0.733505 -0.210006 0.819052 0 0 255
-0.863028 -0.215757 0.819052 0 0 255
-0.891934 -0.040394 0.712465 0 0 255
-0.877448 -0.0259078 0.743616 0 0 255
-0.706807 -0.0355098 0.973493 0 0 255
-0.697928 -0.0573563 0.928298 0 0 255
-0.697928 -0.113205 0.881403 0 0 255
-0.697928 -0.0698534 0.931065 0 0 255
-0.697928 -0.154706 0.932678 0 0 255
-0.697928 -0.119553 0.962294 0 0 255
-0.697928 -0.1905 0.971628 0 0 255
-0.697928 -0.179123 0.926911 0 0 255
-0.702749 -0.207209 0.972427 0 0 255
-0.752605 -0.222388 0.908187 0 0 255
-0.768337 -0.222388 0.900979 0 0 255
-0.790883 -0.222388 0.909896 0 0 255
-0.728043 -0.222388 0.972879 0 0 255
-0.831981 -0.222388 0.98475 0 0 255
-0.822364 -0.222388 0.957631 0 0 255
-0.854179 -0.222388 0.952943 0 0 255
-0.882345 -0.215972 0.90368 0 0 255
-0.852087 -0.0243884 0.985719 0 0 255
-0.718145 -0.0243884 0.897628 0 0 255
-0.720437 -0.0243884 0.988216 0 0 255
-0.824531 -0.0243884 0.968905 0 0 255
-0.798253 -0.0243884 0.922705 0 0 255
-0.80271 -0.0243884 0.911912 0 0 255
-0.773169 -0.0243884 0.909193 0 0 255
-0.895928 -0.151158 0.915631 0 0 255
-0.895928 -0.131105 0.903576 0 0 255
-0.895928 -0.170504 0.889905 0 0 255
-0.895928 -0.128707 0.894139 0 0 255
-0.895928 -0.0804555 0.933132 0 0 255
-0.895928 -0.0730664 0.923842 0 0 255
-0.895928 -0.0710485 0.949689 0 0 255
-0.710512 -0.171524 0.879052 0 0 255
-0.714307 -0.040298 0.879052 0 0 255
-0.855809 -0.221515 0.879052 0 0 255
-0.874944 -0.218639 0.879052 0 0 255
-0.707463 -0.179038 0.989052 0 0 255
-0.85072 -0.0323976 0.989052 0 0 255
-0.874559 -0.0384385 0.989052 0 0 255
-0.880967 -0.0294265 0.903516 0 0 255
-0.699287 -0.0430303 1.13411 0 0 255
-0.697928 -0.0584176 1.11612 0 0 255
-0.697928 -0.173507 1.05495 0 0 255
-0.697928 -0.170514 1.05608 0 0 255
-0.697928 -0.0552843 1.05818 0 0 255
-0.697928 -0.184125 1.0959 0 0 255
-0.697928 -0.15014 1.13669 0 0 255
-0.697928 -0.0867642 1.13275 0 0 255
-0.711546 -0.216006 1.05481 0 0 255
-0.705994 -0.210454 1.1322 0 0 255
-0.74007 -0.222388 1.05122 0 0 255
-0.818464 -0.222388 1.08239 0 0 255
-0.742511 -0.222388 1.1365 0 0 255
-0.840213 -0.222388 1.07723 0 0 255
-0.848457 -0.222388 1.0712 0 0 255
-0.868351 -0.222388 1.09229 0 0 255
-0.825087 -0.222388 1.1254 0 0 255
-0.877685 -0.220632 1.11812 0 0 255
-0.822388 -0.0243884 1.13622 0 0 255
-0.746847 -0.0243884 1.09855 0 0 255
-0.801667 -0.0243884 1.13681 0 0 255
-0.801087 -0.0243884 1.06902 0 0 255
-0.865256 -0.0243884 1.08007 0 0 255
-0.763056 -0.0243884 1.06082 0 0 255
-0.833161 -0.0243884 1.09726 0 0 255
-0.895928 -0.153674 1.0504 0 0 255
-0.895928 -0.0898058 1.05727 0 0 255
-0.895928 -0.186914 1.07398 0 0 255
-0.895928 -0.0842336 1.12295 0 0 255
-0.895928 -0.0890183 1.11824 0 0 255
-0.895928 -0.104104 1.10101 0 0 255
-0.895928 -0.17797 1.14795 0 0 255
-0.893044 -0.145109 1.04905 0 0 255
-0.864872 -0.0411118 1.04905 0 0 255
-0.734493 -0.205954 1.04905 0 0 255
-0.71105 -0.193203 1.15905 0 0 255
-0.893691 -0.193067 1.15905 0 0 255
-0.882863 -0.074909 1.15905 0 0 255
-0.706544 -0.0367477 1.15905 0 0 255
-0.889598 -0.0380581 1.14609 0 0 255
-0.788559 -0.151513 -0.43534 0 0 255
-0.820632 -0.151513 -0.537266 0 0 255
-0.777776 -0.151513 -0.570893 0 0 255
-0.825053 -0.126621 -0.433484 0 0 255
-0.825053 -0.100287 -0.475288 0 0 255
-0.825053 -0.138213 -0.527681 0 0 255
-0.825053 -0.135641 -0.473738 0 0 255
-0.770768 -0.0952633 -0.554262 0 0 255
-0.789082 -0.0952633 -0.536793 0 0 255
-0.804457 -0.0952633 -0.532261 0 0 255
-0.768804 -0.130539 -0.486261 0 0 255
-0.768804 -0.146193 -0.547252 0 0 255
-0.768804 -0.118188 -0.527636 0 0 255
-0.768804 -0.116602 -0.533679 0 0 255
-0.777459 -0.117293 -0.575948 0 0 255
0.464612 0.198359 0.0493045 0 0 255
0.463001 0.197298 0.458668 0 0 255
0.457928 0.193312 0.0275095 0 0 255
0.456276 0.191779 0.052253 0 0 255
0.458487 0.19383 0.381146 0 0 255
0.454968 0.190379 0.00968224 0 0 255
0.451894 0.186396 -0.0392785 0 0 255
0.451355 0.185651 -0.107676 0 0 255
0.448764 0.180818 0.245826 0 0 255
0.448128 0.179427 0.0757897 0 0 255
0.44808 0.179283 0.0891396 0 0 255
0.44661 0.174947 0.454567 0 0 255
0.445988 0.172443 -0.37046 0 0 255
0.445556 0.16979 0.447085 0 0 255
0.445145 0.164856 -0.036984 0 0 255
0.445153 0.162719 0.149083 0 0 255
0.445158 0.16159 -0.230235 0 0 255
0.445738 0.15723 -0.385209 0 0 255
0.446207 0.154487 0.0705405 0 0 255
0.447982 0.149178 -0.268451 0 0 255
0.447426 0.150777 0.130217 0 0 255
0.44932 0.146246 0.0601921 0 0 255
0.450421 0.14423 -0.0920241 0 0 255
0.449894 0.145196 0.219509 0 0 255
0.454374 0.138531 -0.273648 0 0 255
0.452594 0.1408 0.418913 0 0 255
0.456805 0.135836 0.122998 0 0 255
0.459106 0.133735 0.353879 0 0 255
0.459976 0.13294 0.152596 0 0 255
0.464358 0.129944 -0.404606 0 0 255
0.464763 0.129682 0.396568 0 0 255
0.466831 0.128496 -0.379445 0 0 255
0.47178 0.126348 -0.309361 0 0 255
0.474839 0.125514 0.011808 0 0 255
0.47405 0.125711 0.181479 0 0 255
0.476477 0.125106 -0.012315 0 0 255
0.483614 0.124185 -0.275461 0 0 255
0.484486 0.124116 -0.217877 0 0 255
0.485256 0.124069 -0.0492432 0 0 255
0.490409 0.124517 0.153606 0 0 255
0.491569 0.124618 -0.288472 0 0 255
0.495375 0.125567 -0.365466 0 0 255
0.496544 0.125867 0.294356 0 0 255
0.502807 0.128346 -0.299761 0 0 255
0.499851 0.127035 0.282526 0 0 255
0.508013 0.131479 -0.359615 0 0 255
0.509619 0.132537 -0.164718 0 0 255
0.508061 0.13151 0.26459 0 0 255
0.509864 0.132742 -0.00481283 0 0 255
0.513409 0.136031 -0.00278445 0 0 255
0.515517 0.138343 -0.0778576 0 0 255
0.516522 0.139644 0.445481 0 0 255
0.51875 0.142626 -0.0713913 0 0 255
0.518928 0.142957 -0.181297 0 0 255
0.52001 0.144976 0.250625 0 0 255
0.523402 0.153144 -0.356697 0 0 255
0.522615 0.150821 0.391245 0 0 255
0.52391 0.154911 -0.00202727 0 0 255
0.524106 0.156112 0.28248 0 0 255
0.524876 0.160843 0.408689 0 0 255
0.52488 0.16292 -0.243827 0 0 255
0.524862 0.167449 -0.163028 0 0 255
0.524346 0.170536 -0.15417 0 0 255
0.524181 0.171502 0.0151294 0 0 255
0.52357 0.174546 -0.0405947 0 0 255
0.523365 0.175137 -0.185712 0 0 255
0.522267 0.178294 0.224561 0 0 255
0.520255 0.182696 -0.183036 0 0 255
0.519077 0.184854 0.237372 0 0 255
0.517403 0.187356 -0.361537 0 0 255
0.514404 0.191179 -0.311858 0 0 255
0.514909 0.190535 -0.193326 0 0 255
0.512553 0.192895 -0.22209 0 0 255
0.509716 0.195486 0.160436 0 0 255
0.509373 0.195777 -0.0189728 0 0 255
0.505696 0.198159 -0.135599 0 0 255
0.501848 0.200211 -0.407019 0 0 255
0.500003 0.201011 -0.343228 0 0 255
0.500141 0.200951 0.410652 0 0 255
0.497712 0.20198 -0.293232 0 0 255
0.492463 0.203287 0.0911384 0 0 255
0.48768 0.203838 -0.211692 0 0 255
0.48913 0.203724 0.189715 0 0 255
0.485617 0.204001 -0.0496628 0 0 255
0.48477 0.204054 0.0715476 0 0 255
0.480462 0.20368 0.268935 0 0 255
0.475375 0.202744 -0.21844 0 0 255
0.474727 0.202577 -0.0161783 0 0 255
0.471268 0.201574 0.274998 0 0 255
0.470446 0.201209 0.248666 0 0 255
0.470379 0.20118 0.466141 0 0 255
0.511336 0.133531 0.474476 0 0 255
0.48633 0.119161 0.480737 0 0 255
0.498862 0.206828 0.479136 0 0 255
0.450768 0.225042 0.678922 0 0 255
0.428461 0.204968 0.535727 0 0 255
0.425202 0.200144 0.540501 0 0 255
0.420365 0.190652 0.572962 0 0 255
0.415405 0.17065 0.663699 0 0 255
0.415269 0.159372 0.653936 0 0 255
0.41987 0.138993 0.537972 0 0 255
0.421434 0.13493 0.513643 0 0 255
0.430183 0.120929 0.538483 0 0 255
0.441795 0.109055 0.554367 0 0 255
0.446869 0.105651 0.6659 0 0 255
0.455304 0.100907 0.674898 0 0 255
0.475079 0.0948674 0.599402 0 0 255
0.490019 0.094473 0.550095 0 0 255
0.506413 0.0975356 0.631472 0 0 255
0.517902 0.102334 0.514206 0 0 255
0.527471 0.108496 0.513147 0 0 255
0.539398 0.120351 0.503024 0 0 255
0.543907 0.126273 0.602912 0 0 255
0.55286 0.146918 0.630978 0 0 255
0.553216 0.148857 0.663812 0 0 255
0.554769 0.165077 0.582208 0 0 255
0.551162 0.186228 0.548411 0 0 255
0.548166 0.193968 0.57242 0 0 255
0.539595 0.207506 0.535203 0 0 255
0.528761 0.218582 0.627638 0 0 255
0.520029 0.224496 0.677431 0 0 255
0.505022 0.23097 0.532484 0 0 255
0.495709 0.233195 0.646815 0 0 255
0.483793 0.233979 0.565413 0 0 255
0.462064 0.230189 0.563622 0 0 255
0.460759 0.229619 0.674415 0 0 255
0.473317 0.0836424 0.691232 0 0 255
0.424669 0.114192 0.688187 0 0 255
0.408801 0.160194 0.686002 0 0 255
0.429458 0.208186 0.680318 0 0 255
0.477539 0.257167 0.704469 0 0 255
0.532975 0.233187 0.694461 0 0 255
0.57182 0.180769 0.699072 0 0 255
0.56478 0.121207 0.701404 0 0 255
0.43276 0.233478 0.830826 0 0 255
0.39487 0.182597 0.825199 0 0 255
0.403286 0.122009 0.82527 0 0 255
0.456271 0.0932849 0.841949 0 0 255
0.515182 0.0796769 0.827969 0 0 255
0.562789 0.126672 0.831363 0 0 255
0.573945 0.199569 0.821206 0 0 255
0.54122 0.243158 0.819828 0 0 255
0.472343 0.250271 0.830538 0 0 255
0.491566 0.0720776 0.873183 0 0 255
0.437803 0.0937299 0.865108 0 0 255
0.411224 0.143075 0.856391 0 0 255
0.397774 0.202203 0.876086 0 0 255
0.454234 0.248303 0.870259 0 0 255
0.500996 0.23372 0.850875 0 0 255
0.560544 0.203741 0.865768 0 0 255
0.569742 0.147273 0.866863 0 0 255
0.53571 0.0927547 0.868057 0 0 255
0.416699 0.206436 1.0078 0 0 255
0.409929 0.148588 1.01168 0 0 255
0.438609 0.0899999 1.0001 0 0 255
0.49637 0.0784823 1.00133 0 0 255
0.545532 0.102772 1.00149 0 0 255
0.570765 0.15948 1.00188 0 0 255
0.542963 0.213978 1.01191 0 0 255
0.494866 0.260543 0.989814 0 0 255
0.525231 0.0829124 1.04133 0 0 255
0.45684 0.0797984 1.03928 0 0 255
0.406319 0.113927 1.04414 0 0 255
0.412044 0.171594 1.02278 0 0 255
0.433095 0.224341 1.02952 0 0 255
0.487681 0.259817 1.04691 0 0 255
0.529511 0.219368 1.02022 0 0 255
0.581157 0.164565 1.04742 0 0 255
0.555009 0.110389 1.03888 0 0 255
0.433623 0.221009 1.18159 0 0 255
0.405526 0.167543 1.17861 0 0 255
0.413179 0.114206 1.17021 0 0 255
0.468158 0.0805386 1.17254 0 0 255
0.524707 0.0950234 1.17859 0 0 255
0.567146 0.140029 1.17213 0 0 255
0.569369 0.202457 1.16467 0 0 255
0.525833 0.242997 1.16873 0 0 255
0.468184 0.237227 1.18337 0 0 255
0.436052 0.213799 1.19658 0 0 255
0.433039 0.210899 1.20647 0 0 255
0.421072 0.19244 1.28796 0 0 255
0.416199 0.175526 1.24368 0 0 255
0.415271 0.158885 1.32437 0 0 255
0.418748 0.14222 1.24171 0 0 255
0.423663 0.130851 1.296 0 0 255
0.436609 0.113791 1.26164 0 0 255
0.450004 0.103621 1.21118 0 0 255
0.456293 0.100478 1.31016 0 0 255
0.483946 0.0941681 1.19394 0 0 255
0.493933 0.0948129 1.28749 0 0 255
0.509957 0.0988116 1.20258 0 0 255
0.526389 0.107783 1.22457 0 0 255
0.540865 0.122253 1.2229 0 0 255
0.545918 0.130025 1.3384 0 0 255
0.55031 0.139393 1.30449 0 0 255
0.554786 0.160726 1.19728 0 0 255
0.554222 0.173201 1.3358 0 0 255
0.547015 0.196074 1.2766 0 0 255
0.539006 0.208257 1.33624 0 0 255
0.524389 0.221673 1.20191 0 0 255
0.510465 0.229062 1.23502 0 0 255
0.50084 0.232011 1.29941 0 0 255
0.479494 0.233606 1.24311 0 0 255
0.462515 0.230305 1.23506 0 0 255
0.492194 0.140184 1.2969 0 0 255
0.469438 0.144543 1.27235 0 0 255
0.460189 0.166644 1.29406 0 0 255
0.473325 0.186134 1.29258 0 0 255
0.498495 0.185012 1.32565 0 0 255
0.509921 0.165338 1.2628 0 0 255
0.498445 0.143076 1.33725 0 0 255
0.510227 0.21299 0.499052 0 0 255
0.537496 0.131474 0.499052 0 0 255
0.446958 0.123856 0.499052 0 0 255
0.452698 0.20176 0.499052 0 0 255
0.448704 0.10768 1.33905 0 0 255
0.516287 0.116819 1.33905 0 0 255
0.549492 0.180103 1.33905 0 0 255
0.496037 0.214174 1.33905 0 0 255
0.442374 0.200617 1.33905 0 0 255
0.501713 0.174465 1.23905 0 0 255
0.581999 0.245074 0.778792 0 0 255
0.584012 0.230162 0.789149 0 0 255
0.584012 0.182098 0.754671 0 0 255
0.584012 0.203435 0.766123 0 0 255
0.584012 0.207314 0.749555 0 0 255
0.584012 0.139085 0.766255 0 0 255
0.584012 0.104682 0.80892 0 0 255
0.584012 0.0943115 0.799755 0 0 255
0.57536 0.0764104 0.763651 0 0 255
0.580479 0.0815288 0.809265 0 0 255
0.446284 0.0650617 0.71038 0 0 255
0.563249 0.0650617 0.804525 0 0 255
0.436915 0.0650617 0.714948 0 0 255
0.410603 0.0650617 0.713102 0 0 255
0.422754 0.0650617 0.777257 0 0 255
0.420353 0.0650617 0.775655 0 0 255
0.451213 0.0650617 0.748092 0 0 255
0.398184 0.0728893 0.815362 0 0 255
0.491122 0.263062 0.7673 0 0 255
0.553174 0.263062 0.755423 0 0 255
0.545899 0.263062 0.76389 0 0 255
0.414623 0.263062 0.731217 0 0 255
0.413456 0.263062 0.76892 0 0 255
0.457158 0.263062 0.723682 0 0 255
0.479456 0.263062 0.764031 0 0 255
0.386011 0.146743 0.71957 0 0 255
0.386011 0.0901845 0.751412 0 0 255
0.386011 0.0934061 0.714143 0 0 255
0.386011 0.168732 0.789627 0 0 255
0.386011 0.204485 0.802809 0 0 255
0.386011 0.150256 0.808257 0 0 255
0.386011 0.202422 0.79908 0 0 255
0.549764 0.258377 0.709052 0 0 255
0.546538 0.242791 0.709052 0 0 255
0.535924 0.0676105 0.709052 0 0 255
0.445592 0.258928 0.819052 0 0 255
0.567608 0.109613 0.819052 0 0 255
0.394292 0.250237 0.819052 0 0 255
0.402166 0.0904847 0.819052 0 0 255
0.398841 0.255891 0.798865 0 0 255
0.581178 0.245895 0.9691 0 0 255
0.584012 0.185354 0.888217 0 0 255
0.584012 0.189105 0.922911 0 0 255
0.584012 0.209737 0.936624 0 0 255
0.584012 0.171034 0.923167 0 0 255
0.584012 0.105031 0.922642 0 0 255
0.584012 0.18805 0.968254 0 0 255
0.584012 0.104248 0.943336 0 0 255
0.578285 0.0793351 0.936625 0 0 255
0.560495 0.0650617 0.946682 0 0 255
0.484463 0.0650617 0.880879 0 0 255
0.534414 0.0650617 0.932238 0 0 255
0.476538 0.0650617 0.895768 0 0 255
0.419502 0.0650617 0.981983 0 0 255
0.447919 0.0650617 0.917502 0 0 255
0.431635 0.0650617 0.928474 0 0 255
0.395244 0.0758292 0.891994 0 0 255
0.388286 0.082787 0.977232 0 0 255
0.540503 0.263062 0.955483 0 0 255
0.538349 0.263062 0.987462 0 0 255
0.462124 0.263062 0.960006 0 0 255
0.434461 0.263062 0.942809 0 0 255
0.44961 0.263062 0.91642 0 0 255
0.408729 0.263062 0.917069 0 0 255
0.446655 0.263062 0.926643 0 0 255
0.386011 0.139281 0.929718 0 0 255
0.386011 0.16561 0.925243 0 0 255
0.386011 0.194078 0.909121 0 0 255
0.386011 0.204708 0.969569 0 0 255
0.386011 0.137641 0.977835 0 0 255
0.386011 0.142045 0.964038 0 0 255
0.386011 0.139107 0.978986 0 0 255
0.420992 0.0797291 0.879052 0 0 255
0.582937 0.171287 0.879052 0 0 255
0.53383 0.0741729 0.879052 0 0 255
0.554189 0.0882572 0.989052 0 0 255
0.387849 0.199917 0.989052 0 0 255
0.558975 0.241069 0.989052 0 0 255
0.386723 0.243773 0.934568 0 0 255
0.391519 0.248569 0.975569 0 0 255
0.574004 0.253069 1.1214 0 0 255
0.584012 0.206334 1.09289 0 0 255
0.584012 0.216138 1.13417 0 0 255
0.584012 0.11147 1.05569 0 0 255
0.584012 0.119819 1.09288 0 0 255
0.584012 0.159639 1.11579 0 0 255
0.584012 0.156293 1.13619 0 0 255
0.584012 0.227202 1.14869 0 0 255
0.564687 0.0657366 1.14593 0 0 255
0.503826 0.0650617 1.11612 0 0 255
0.511968 0.0650617 1.10998 0 0 255
0.534602 0.0650617 1.10623 0 0 255
0.526342 0.0650617 1.06702 0 0 255
0.408057 0.0650617 1.07593 0 0 255
0.41189 0.0650617 1.10701 0 0 255
0.442549 0.0650617 1.14685 0 0 255
0.395294 0.0757788 1.09813 0 0 255
0.482918 0.263062 1.14211 0 0 255
0.524781 0.263062 1.07721 0 0 255
0.55007 0.263062 1.12806 0 0 255
0.554588 0.263062 1.14697 0 0 255
0.485553 0.263062 1.06311 0 0 255
0.473241 0.263062 1.09399 0 0 255
0.524173 0.263062 1.06038 0 0 255
0.386011 0.1072 1.0816 0 0 255
0.386011 0.132365 1.06917 0 0 255
0.386011 0.148457 1.07739 0 0 255
0.386011 0.114276 1.12208 0 0 255
0.386011 0.227298 1.07626 0 0 255
0.386011 0.127955 1.14647 0 0 255
0.386011 0.230278 1.15574 0 0 255
0.425397 0.0719519 1.04905 0 0 255
0.450614 0.0689979 1.04905 0 0 255
0.561856 0.224965 1.04905 0 0 255
0.397818 0.225442 1.04905 0 0 255
0.567655 0.0759475 1.15905 0 0 255
0.390862 0.20967 1.15905 0 0 255
0.562877 0.259059 1.15905 0 0 255
0.388082 0.245132 1.10742 0 0 255
0.458913 0.135937 -0.448851 0 0 255
0.467615 0.135937 -0.470128 0 0 255
0.482643 0.135937 -0.528148 0 0 255
0.484316 0.135937 -0.505804 0 0 255
0.456887 0.191063 -0.500934 0 0 255
0.456887 0.151565 -0.516308 0 0 255
0.456887 0.156189 -0.497511 0 0 255
0.508621 0.192187 -0.548307 0 0 255
0.494505 0.192187 -0.492431 0 0 255
0.469765 0.192187 -0.507203 0 0 255
0.472612 0.192187 -0.491691 0 0 255
0.513137 0.165744 -0.452703 0 0 255
0.513137 0.186377 -0.511161 0 0 255
0.513137 0.192164 -0.506659 0 0 255
0.490119 0.176541 -0.575948 0 0 255
0.922403 0.356037 0.0751015 0 0 255
0.917776 0.352987 0.419713 0 0 255
0.917914 0.353078 -0.000787643 0 0 255
0.916139 0.351627 -0.26547 0 0 255
0.91484 0.350421 0.406617 0 0 255
0.911593 0.347131 0.257996 0 0 255
0.909418 0.344314 0.196088 0 0 255
0.907121 0.340662 -0.32145 0 0 255
0.906321 0.339169 -0.408363 0 0 255
0.905592 0.337809 -0.222439 0 0 255
0.904538 0.335139 -0.17008 0 0 255
0.903731 0.332758 0.12313 0 0 255
0.90306 0.330756 0.377226 0 0 255
0.902665 0.328332 0.370239 0 0 255
0.902332 0.326284 -0.032811 0 0 255
0.902006 0.324143 0.380134 0 0 255
0.902029 0.318148 0.261977 0 0 255
0.902687 0.313835 -0.082351 0 0 255
0.903144 0.311162 -0.246252 0 0 255
0.904054 0.308544 0.0675072 0 0 255
0.903572 0.309931 0.184915 0 0 255
0.905152 0.305386 -0.0201485 0 0 255
0.906538 0.302679 -0.13223 0 0 255
0.907668 0.30061 0.245932 0 0 255
0.908491 0.29911 0.204022 0 0 255
0.910093 0.297068 0.362691 0 0 255
0.912179 0.294409 -0.299646 0 0 255
0.916076 0.290713 -0.266976 0 0 255
0.91568 0.291075 0.313254 0 0 255
0.919568 0.288089 0.113241 0 0 255
0.920865 0.287249 0.2637 0 0 255
0.926333 0.284424 -0.231605 0 0 255
0.925523 0.284775 0.361644 0 0 255
0.928998 0.283268 0.0586247 0 0 255
0.931033 0.282752 -0.177088 0 0 255
0.934893 0.281791 -0.147017 0 0 255
0.935834 0.281621 -0.352292 0 0 255
0.941826 0.281149 -0.335728 0 0 255
0.945961 0.281472 -0.334383 0 0 255
0.943469 0.281256 0.0187379 0 0 255
0.943688 0.281275 0.325986 0 0 255
0.949599 0.281955 0.202929 0 0 255
0.954981 0.283341 -0.124959 0 0 255
0.956978 0.284219 -0.109604 0 0 255
0.960727 0.285881 0.342271 0 0 255
0.960321 0.285701 -0.121958 0 0 255
0.962345 0.286876 -0.423257 0 0 255
0.965933 0.289241 -0.317371 0 0 255
0.96886 0.291784 -0.337799 0 0 255
0.970212 0.293039 0.00429628 0 0 255
0.972829 0.295985 -0.110308 0 0 255
0.973511 0.296868 -0.218906 0 0 255
0.974845 0.298597 0.0844508 0 0 255
0.976179 0.300738 -0.072332 0 0 255
0.977463 0.303134 0.151802 0 0 255
0.979609 0.308257 -0.0185087 0 0 255
0.979439 0.307755 0.327392 0 0 255
0.979381 0.307583 0.255878 0 0 255
0.980698 0.311477 0.301642 0 0 255
0.981751 0.317948 0.431778 0 0 255
0.981748 0.320504 -0.365969 0 0 255
0.981738 0.322937 0.0263792 0 0 255
0.981728 0.324609 0.0690826 0 0 255
0.981702 0.324764 0.0213935 0 0 255
0.980853 0.329734 0.0943009 0 0 255
0.980432 0.331639 0.27877 0 0 255
0.979738 0.333636 0.424459 0 0 255
0.977166 0.339693 -0.150729 0 0 255
0.975948 0.341922 -0.064397 0 0 255
0.97546 0.342815 -0.280714 0 0 255
0.975149 0.34331 -0.421196 0 0 255
0.972151 0.347131 0.468933 0 0 255
0.970568 0.348919 -0.0550964 0 0 255
0.969015 0.350338 0.215566 0 0 255
0.963405 0.354685 -0.266376 0 0 255
0.963878 0.354379 -0.0393257 0 0 255
0.961552 0.355886 0.0772341 0 0 255
0.959581 0.356906 0.00149619 0 0 255
0.956616 0.358193 0.00627389 0 0 255
0.949595 0.360292 -0.419661 0 0 255
0.948412 0.360586 -0.154046 0 0 255
0.950109 0.360164 0.411072 0 0 255
0.94507 0.360867 -0.36058 0 0 255
0.942602 0.361062 0.388509 0 0 255
0.939642 0.360951 -0.327167 0 0 255
0.936437 0.360672 -0.106022 0 0 255
0.931434 0.359605 -0.0476007 0 0 255
0.933687 0.360185 0.0750978 0 0 255
0.929479 0.359102 0.35804 0 0 255
0.92536 0.357412 -0.133627 0 0 255
0.927995 0.358581 0.452735 0 0 255
0.915221 0.356046 0.478027 0 0 255
0.90497 0.295524 0.492883 0 0 255
0.986347 0.327164 0.494738 0 0 255
0.902521 0.37874 0.534626 0 0 255
0.891138 0.369213 0.677949 0 0 255
0.884648 0.361154 0.603171 0 0 255
0.878141 0.349881 0.602581 0 0 255
0.872538 0.329337 0.499205 0 0 255
0.87213 0.318676 0.552195 0 0 255
0.87333 0.308134 0.574787 0 0 255
0.877506 0.293862 0.679028 0 0 255
0.882738 0.283883 0.574451 0 0 255
0.891499 0.272669 0.605086 0 0 255
0.901985 0.263857 0.577717 0 0 255
0.918672 0.255157 0.583276 0 0 255
0.928308 0.25262 0.593587 0 0 255
0.939761 0.251321 0.585008 0 0 255
0.957984 0.253242 0.596965 0 0 255
0.967587 0.256218 0.501921 0 0 255
0.984927 0.265952 0.540108 0 0 255
0.989104 0.269783 0.655372 0 0 255
0.998749 0.280635 0.615582 0 0 255
1.00613 0.293376 0.601197 0 0 255
1.01073 0.309859 0.577791 0 0 255
1.01165 0.319034 0.536309 0 0 255
1.00987 0.337445 0.54267 0 0 255
1.00788 0.343744 0.632023 0 0 255
0.998096 0.362498 0.538622 0 0 255
0.987737 0.373729 0.544362 0 0 255
0.983593 0.377231 0.536685 0 0 255
0.964631 0.387306 0.67311 0 0 255
0.957772 0.389066 0.64831 0 0 255
0.938037 0.390821 0.581097 0 0 255
0.928983 0.389847 0.556219 0 0 255
0.918776 0.387198 0.589161 0 0 255
0.951448 0.23266 0.699701 0 0 255
0.892049 0.254585 0.693226 0 0 255
0.861678 0.295444 0.694566 0 0 255
0.857785 0.361989 0.704491 0 0 255
0.909092 0.387765 0.68383 0 0 255
0.971865 0.398425 0.693115 0 0 255
1.02467 0.366243 0.705414 0 0 255
1.02363 0.301047 0.694266 0 0 255
0.993746 0.246713 0.70154 0 0 255
0.866175 0.368183 0.828418 0 0 255
0.859519 0.304737 0.833801 0 0 255
0.892914 0.254243 0.835076 0 0 255
0.948056 0.241699 0.8384 0 0 255
1.00953 0.268362 0.831818 0 0 255
1.02673 0.315432 0.832852 0 0 255
0.998776 0.364826 0.846933 0 0 255
0.953018 0.401028 0.83748 0 0 255
0.974531 0.230611 0.877246 0 0 255
0.922083 0.247108 0.85642 0 0 255
0.864128 0.271257 0.873119 0 0 255
0.853596 0.342882 0.871492 0 0 255
0.895455 0.388765 0.862232 0 0 255
0.947687 0.413361 0.873391 0 0 255
1.00298 0.382145 0.866784 0 0 255
1.03883 0.329512 0.878318 0 0 255
1.01851 0.261945 0.878144 0 0 255
0.896442 0.374254 1.01896 0 0 255
0.849299 0.323449 0.994527 0 0 255
0.882667 0.267138 1.00813 0 0 255
0.922566 0.253707 1.01869 0 0 255
0.98574 0.251737 1.00581 0 0 255
1.01 0.299747 1.01732 0 0 255
1.0178 0.356803 1.00403 0 0 255
0.979067 0.396766 1.00354 0 0 255
0.921735 0.390772 1.01615 0 0 255
0.937298 0.226084 1.04631 0 0 255
0.888092 0.259736 1.03179 0 0 255
0.858072 0.312307 1.03447 0 0 255
0.874203 0.366835 1.03167 0 0 255
0.925997 0.411867 1.04278 0 0 255
0.981208 0.386998 1.02647 0 0 255
1.02978 0.358844 1.04663 0 0 255
1.01497 0.292036 1.02851 0 0 255
0.886587 0.398625 1.16178 0 0 255
0.856906 0.348026 1.16825 0 0 255
0.875144 0.29649 1.18758 0 0 255
0.906169 0.249238 1.17786 0 0 255
0.970672 0.233861 1.16547 0 0 255
1.01857 0.273677 1.16728 0 0 255
1.03853 0.333683 1.15936 0 0 255
0.997926 0.391445 1.1676 0 0 255
0.92736 0.416264 1.16081 0 0 255
0.907701 0.382153 1.2143 0 0 255
0.892477 0.370456 1.23986 0 0 255
0.881778 0.356666 1.25112 0 0 255
0.874257 0.338934 1.28891 0 0 255
0.872107 0.324503 1.26876 0 0 255
0.873076 0.309622 1.3107 0 0 255
0.881305 0.286506 1.239 0 0 255
0.889402 0.275006 1.25252 0 0 255
0.898643 0.266144 1.25082 0 0 255
0.910148 0.258856 1.20484 0 0 255
0.925941 0.25321 1.28045 0 0 255
0.943498 0.251249 1.26533 0 0 255
0.958597 0.253399 1.2808 0 0 255
0.976 0.260069 1.3158 0 0 255
0.990899 0.271448 1.24412 0 0 255
0.998293 0.280044 1.26606 0 0 255
1.00791 0.298623 1.21834 0 0 255
1.01 0.305383 1.33688 0 0 255
1.0108 0.332005 1.21131 0 0 255
1.00769 0.344279 1.30124 0 0 255
0.999247 0.361032 1.23216 0 0 255
0.987209 0.374211 1.31258 0 0 255
0.97076 0.384646 1.19002 0 0 255
0.95686 0.389293 1.22857 0 0 255
0.941733 0.391121 1.31184 0 0 255
0.927428 0.389446 1.19051 0 0 255
0.908354 0.382577 1.29818 0 0 255
0.933881 0.297449 1.29479 0 0 255
0.918067 0.313759 1.30262 0 0 255
0.923277 0.337803 1.24899 0 0 255
0.947205 0.345481 1.29583 0 0 255
0.965147 0.330081 1.28949 0 0 255
0.962082 0.306526 1.27643 0 0 255
0.976638 0.308033 -0.425948 0 0 255
0.98828 0.331353 0.499052 0 0 255
0.950798 0.253002 0.499052 0 0 255
0.896599 0.325421 0.499052 0 0 255
0.942379 0.268539 1.33905 0 0 255
0.998718 0.297221 1.33905 0 0 255
0.972759 0.351264 1.33905 0 0 255
0.928021 0.350831 1.33905 0 0 255
0.890341 0.320405 1.33905 0 0 255
0.920895 0.260732 1.33905 0 0 255
0.943028 0.298453 1.23905 0 0 255
1.02796 0.41305 0.778269 0 0 255
1.04088 0.369625 0.717898 0 0 255
1.04088 0.372456 0.791527 0 0 255
1.04088 0.370056 0.71851 0 0 255
1.04088 0.306487 0.786545 0 0 255
1.04088 0.258186 0.755526 0 0 255
1.04088 0.275365 0.808458 0 0 255
1.04088 0.282825 0.743812 0 0 255
1.02686 0.228106 0.815268 0 0 255
0.991456 0.222132 0.734749 0 0 255
1.00157 0.222132 0.747691 0 0 255
0.984912 0.222132 0.763101 0 0 255
1.01607 0.222132 0.751072 0 0 255
0.909752 0.222132 0.812776 0 0 255
0.876051 0.222132 0.719164 0 0 255
0.899294 0.222132 0.809869 0 0 255
0.843974 0.241039 0.76124 0 0 255
0.973075 0.420132 0.781266 0 0 255
0.956917 0.420132 0.810035 0 0 255
0.995782 0.420132 0.805537 0 0 255
0.906603 0.420132 0.8113 0 0 255
0.891938 0.420132 0.75831 0 0 255
0.878344 0.420132 0.7179 0 0 255
0.934463 0.420132 0.740582 0 0 255
0.842882 0.325584 0.728408 0 0 255
0.842882 0.260941 0.726296 0 0 255
0.842882 0.365721 0.718935 0 0 255
0.842882 0.270225 0.777754 0 0 255
0.842882 0.32743 0.801647 0 0 255
0.842882 0.383934 0.724845 0 0 255
0.842882 0.320526 0.808952 0 0 255
0.852638 0.366499 0.709052 0 0 255
1.01363 0.23894 0.709052 0 0 255
0.851314 0.404068 0.709052 0 0 255
0.929657 0.223877 0.709052 0 0 255
0.851517 0.259072 0.819052 0 0 255
0.879706 0.417045 0.819052 0 0 255
1.02428 0.403625 0.819052 0 0 255
0.846454 0.403704 0.772244 0 0 255
1.03129 0.409728 0.888147 0 0 255
1.04088 0.319845 0.907806 0 0 255
1.04088 0.336384 0.931705 0 0 255
1.04088 0.386321 0.975315 0 0 255
1.04088 0.356747 0.947569 0 0 255
1.04088 0.246164 0.983911 0 0 255
1.04088 0.277441 0.9873 0 0 255
1.04088 0.244483 0.888484 0 0 255
1.03917 0.240421 0.895146 0 0 255
1.02827 0.229525 0.954374 0 0 255
0.940691 0.222132 0.932595 0 0 255
0.98786 0.222132 0.936453 0 0 255
0.989571 0.222132 0.895729 0 0 255
0.950911 0.222132 0.96148 0 0 255
0.941446 0.222132 0.981306 0 0 255
0.900305 0.222132 0.983808 0 0 255
0.930955 0.222132 0.97003 0 0 255
0.85426 0.230753 0.958669 0 0 255
1.00709 0.420132 0.982963 0 0 255
0.977325 0.420132 0.931461 0 0 255
0.935536 0.420132 0.950414 0 0 255
0.955321 0.420132 0.922987 0 0 255
0.893018 0.420132 0.890711 0 0 255
0.921465 0.420132 0.895756 0 0 255
0.919211 0.420132 0.939363 0 0 255
0.842882 0.347206 0.915858 0 0 255
0.842882 0.271358 0.914458 0 0 255
0.842882 0.314975 0.888945 0 0 255
0.842882 0.260407 0.988024 0 0 255
0.842882 0.355646 0.931404 0 0 255
0.842882 0.333729 0.931332 0 0 255
0.842882 0.361603 0.960003 0 0 255
1.0217 0.384226 0.879052 0 0 255
1.03843 0.350053 0.879052 0 0 255
0.870331 0.237024 0.879052 0 0 255
1.0191 0.253508 0.989052 0 0 255
0.852681 0.257112 0.989052 0 0 255
1.03591 0.389021 0.989052 0 0 255
1.02271 0.391141 0.989052 0 0 255
0.852318 0.409568 0.939755 0 0 255
1.03497 0.406043 1.06299 0 0 255
1.04088 0.298762 1.05182 0 0 255
1.04088 0.365457 1.11218 0 0 255
1.04088 0.363767 1.12081 0 0 255
1.04088 0.346378 1.09622 0 0 255
1.04088 0.323669 1.13675 0 0 255
1.04088 0.262928 1.09259 0 0 255
1.04088 0.320167 1.1079 0 0 255
1.03652 0.237771 1.1289 0 0 255
0.92075 0.222132 1.08192 0 0 255
0.987965 0.222132 1.09715 0 0 255
1.00313 0.222132 1.07911 0 0 255
0.964436 0.222132 1.06306 0 0 255
0.933543 0.222132 1.14041 0 0 255
0.896504 0.222132 1.12511 0 0 255
0.891103 0.222132 1.08636 0 0 255
0.843932 0.241081 1.0561 0 0 255
0.856103 0.22891 1.09309 0 0 255
0.999738 0.420132 1.07623 0 0 255
0.89744 0.420132 1.15682 0 0 255
0.962863 0.420132 1.13796 0 0 255
0.921372 0.420132 1.06352 0 0 255
0.876038 0.420132 1.12015 0 0 255
0.880625 0.420132 1.08763 0 0 255
0.88268 0.420132 1.06772 0 0 255
0.842882 0.322536 1.09079 0 0 255
0.842882 0.323589 1.0562 0 0 255
0.842882 0.310449 1.05563 0 0 255
0.842882 0.397904 1.07254 0 0 255
0.842882 0.399911 1.13892 0 0 255
0.842882 0.339912 1.13815 0 0 255
0.842882 0.296901 1.12455 0 0 255
1.03858 0.339761 1.04905 0 0 255
0.999159 0.225014 1.04905 0 0 255
1.00558 0.413555 1.04905 0 0 255
1.03069 0.253254 1.15905 0 0 255
0.872623 0.242756 1.15905 0 0 255
0.870071 0.397799 1.15905 0 0 255
0.855344 0.412594 1.05531 0 0 255
0.858994 0.416244 1.15461 0 0 255
0.948272 0.293007 -0.442367 0 0 255
0.946584 0.293007 -0.548071 0 0 255
0.968483 0.293007 -0.53241 0 0 255
0.913756 0.32868 -0.466327 0 0 255
0.913756 0.341273 -0.507494 0 0 255
0.913756 0.320104 -0.499382 0 0 255
0.960068 0.349257 -0.480517 0 0 255
