ply
format ascii 1.0
comment Created by CloudCompare v2.11.1 (Anoia)
comment Created 22. 1. 27. 오전 12:11
obj_info Generated by CloudCompare!
element vertex 705
property float x
property float y
property float z
property uchar red
property uchar green
property uchar blue
property float nx
property float ny
property float nz
end_header
0.886031 -0.721049 -2.16495 0 0 255 0.000977516 0.000977516 0.999999 
0.897659 -0.740214 -2.16495 0 0 255 0.000977516 0.000977516 0.999999 
0.85755 -0.654642 -2.16495 0 0 255 0.000977516 0.000977516 0.999999 
0.839768 -0.600064 -2.16495 0 0 255 -0.0706287 0.0467236 0.996408 
0.905861 -0.553575 -2.16495 0 0 255 0 0 0 
0.958446 -0.749492 -2.16495 0 0 255 -0.472133 -0.0147124 0.881404 
0.918921 -0.690085 -2.16495 0 0 255 0.000977516 0.000977516 0.999999 
0.940201 -0.678268 -2.16495 0 0 255 0.000977516 0.000977516 0.999999 
0.885708 -0.629178 -2.16495 0 0 255 0.000977516 0.000977516 0.999999 
0.913873 -0.682308 -2.16495 0 0 255 0.000977516 0.000977516 0.999999 
0.927152 -0.665048 -2.16495 0 0 255 0.000977516 0.000977516 0.999999 
0.946327 -0.69885 -2.16495 0 0 255 0.000977516 0.000977516 0.999999 
0.929556 -0.694881 -2.16495 0 0 255 0.000977516 0.000977516 0.999999 
0.878378 -0.547613 -2.16495 0 0 255 -0.14703 0.328412 0.933021 
0.94167 -0.539183 -2.16495 0 0 255 -0.0987035 0.0692059 0.992707 
0.970489 -0.704079 -2.16495 0 0 255 -0.46952 0.0854947 0.878773 
0.909044 -0.4772 -2.16495 0 0 255 -0.244964 -0.0353431 0.968888 
0.958265 -0.491566 -2.16495 0 0 255 -0.145476 -0.0400918 0.988549 
0.952214 -0.476926 -2.16495 0 0 255 -0.374688 -0.00639399 0.927129 
0.986191 -0.807649 -2.16495 0 0 255 0.570215 0.414852 -0.70905 
0.953623 -0.614025 -2.16495 0 0 255 -0.286889 -0.0285647 0.957538 
0.943263 -0.481856 -2.16495 0 0 255 -0.00103033 0.0566683 0.998393 
0.984893 -0.673254 -2.16495 0 0 255 -0.672515 0.0528302 0.738196 
0.979237 -0.368854 -2.16495 0 0 255 -0.657622 -0.0238371 0.752971 
0.990379 -0.50761 -2.16495 0 0 255 -0.899552 -0.140688 0.413538 
0.987036 -0.526703 -2.16495 0 0 255 -0.381999 0.0572334 0.922389 
0.981193 -0.348136 -2.16495 0 0 255 -0.764616 0.0645548 0.641245 
0.975291 -0.392145 -2.16495 0 0 255 -0.393476 0.0945988 0.914455 
0.979658 -0.651429 -2.16495 0 0 255 -0.645228 -0.142883 0.75051 
0.990412 -0.264558 -1.59808 0 0 255 0.999999 0.000977516 0.000977516 
0.990412 0.189182 -1.4883 0 0 255 0.999999 0.000977516 0.000977516 
0.990412 0.212302 -1.28564 0 0 255 0.999999 0.000977516 0.000977516 
0.990412 -0.604574 -1.92691 0 0 255 0.999999 0.000977516 0.000977516 
0.990412 0.0527266 -1.33512 0 0 255 0.999999 0.000977516 0.000977516 
0.990412 0.514421 -1.13806 0 0 255 0.999999 0.000977516 0.000977516 
0.990412 -0.181254 -1.66751 0 0 255 0.999999 0.000977516 0.000977516 
0.990412 -0.182628 -1.41287 0 0 255 0.999999 0.000977516 0.000977516 
0.990412 0.241741 -1.13198 0 0 255 0.999999 0.000977516 0.000977516 
0.990412 0.604068 -1.18493 0 0 255 0.999999 0.000977516 0.000977516 
0.990412 -0.300133 -1.54531 0 0 255 0.999999 0.000977516 0.000977516 
0.990412 0.0615791 -1.31022 0 0 255 0.999999 0.000977516 0.000977516 
0.990412 -0.0151421 -1.43849 0 0 255 0.999999 0.000977516 0.000977516 
0.990412 0.369057 -1.09961 0 0 255 0.894373 0.249833 0.371054 
0.990412 0.0624205 -1.56508 0 0 255 0.999999 0.000977516 0.000977516 
0.990412 -0.00971995 -1.5204 0 0 255 0.999999 0.000977516 0.000977516 
0.990412 0.138597 -1.29048 0 0 255 0.999999 0.000977516 0.000977516 
0.990412 -0.322883 -1.5568 0 0 255 0.999999 0.000977516 0.000977516 
0.990412 -0.143896 -1.63084 0 0 255 0.999999 0.000977516 0.000977516 
0.990412 0.0322378 -1.10459 0 0 255 0.990653 -0.0397169 0.130498 
0.990412 0.579472 -1.17446 0 0 255 0.999999 0.000977516 0.000977516 
0.990412 -0.246717 -1.75704 0 0 255 0 0 0 
0.990412 0.129802 -1.3204 0 0 255 0.999999 0.000977516 0.000977516 
0.990412 -0.172488 -1.70027 0 0 255 0.999999 0.000977516 0.000977516 
0.990412 0.694276 -1.10023 0 0 255 0.990591 0.0561144 0.124826 
0.990412 0.195954 -1.44093 0 0 255 0.999999 0.000977516 0.000977516 
0.990412 -0.226673 -1.3866 0 0 255 0.999999 0.000977516 0.000977516 
0.990412 0.415979 -1.13365 0 0 255 0.973293 0.0525114 0.223479 
0.990412 0.219701 -1.43466 0 0 255 0.999999 0.000977516 0.000977516 
0.990412 -0.0984851 -1.6265 0 0 255 0.999999 0.000977516 0.000977516 
0.990412 0.379539 -1.23396 0 0 255 0.999999 0.000977516 0.000977516 
0.990412 -0.45361 -1.71458 0 0 255 0.999999 0.000977516 0.000977516 
0.990412 0.0777225 -1.41534 0 0 255 0.999999 0.000977516 0.000977516 
0.990412 0.072868 -1.09727 0 0 255 0.963183 -0.00361646 0.268823 
0.990412 -0.0335029 -1.16753 0 0 255 0.999999 0.000977516 0.000977516 
0.990412 0.739723 -1.11204 0 0 255 0.999999 0.000977516 0.000977516 
0.990412 0.380098 -1.33025 0 0 255 0.999999 0.000977516 0.000977516 
0.990412 -0.43472 -1.73676 0 0 255 0.999999 0.000977516 0.000977516 
0.990412 0.130941 -1.22913 0 0 255 0.999999 0.000977516 0.000977516 
0.990412 -0.0183718 -1.24907 0 0 255 0.999999 0.000977516 0.000977516 
0.990412 0.0307226 -1.35378 0 0 255 0.999999 0.000977516 0.000977516 
0.990412 0.15358 -1.44667 0 0 255 0.999999 0.000977516 0.000977516 
0.990412 0.164545 -1.50351 0 0 255 0.999999 0.000977516 0.000977516 
0.990412 -0.191444 -1.73354 0 0 255 0.999999 0.000977516 0.000977516 
0.990412 -0.118792 -1.67696 0 0 255 0.999999 0.000977516 0.000977516 
0.990412 0.667986 -1.07252 0 0 255 0.777709 -0.15494 0.609231 
0.990412 -0.476617 -1.75487 0 0 255 0.999999 0.000977516 0.000977516 
0.990412 -0.100237 -1.20414 0 0 255 0.999999 0.000977516 0.000977516 
0.990412 -0.257533 -1.55465 0 0 255 0.999999 0.000977516 0.000977516 
0.990412 0.211732 -1.13645 0 0 255 0.99683 -0.0700475 0.0377179 
0.990412 0.262553 -1.07068 0 0 255 0.882679 -0.0734411 0.464203 
0.990412 0.204039 -1.41246 0 0 255 0.999999 0.000977516 0.000977516 
0.990412 0.523934 -1.15878 0 0 255 0.999999 0.000977516 0.000977516 
0.990412 0.407685 -1.15449 0 0 255 0.999999 0.000977516 0.000977516 
0.990412 -0.188448 -1.51516 0 0 255 0.999999 0.000977516 0.000977516 
0.990412 0.209914 -1.14608 0 0 255 0.999999 0.000977516 0.000977516 
0.990412 -0.349553 -1.73616 0 0 255 0.999999 0.000977516 0.000977516 
0.990412 0.727812 -1.09979 0 0 255 0.986152 -0.0454072 0.159507 
0.990412 0.127197 -1.1844 0 0 255 0.999999 0.000977516 0.000977516 
0.990412 0.0540725 -1.5431 0 0 255 0.999999 0.000977516 0.000977516 
0.990412 -0.336883 -1.62342 0 0 255 0.999999 0.000977516 0.000977516 
0.990412 0.474139 -1.12426 0 0 255 0.975089 -0.0825928 0.205866 
0.990412 -0.0304646 -1.39383 0 0 255 0.999999 0.000977516 0.000977516 
0.990412 0.110927 -1.46275 0 0 255 0.999999 0.000977516 0.000977516 
0.990412 0.105015 -1.22551 0 0 255 0.999999 0.000977516 0.000977516 
0.990412 0.109428 -1.21631 0 0 255 0.999999 0.000977516 0.000977516 
0.990412 0.119726 -1.07304 0 0 255 0.88054 -0.0620099 0.469897 
0.990412 0.348546 -1.34071 0 0 255 0.999999 0.000977516 0.000977516 
0.990412 0.0878967 -1.50698 0 0 255 0.999999 0.000977516 0.000977516 
0.990412 -0.351611 -1.56504 0 0 255 0.999999 0.000977516 0.000977516 
0.990412 0.449324 -1.28699 0 0 255 0.999999 0.000977516 0.000977516 
0.990412 0.168185 -1.23729 0 0 255 0.999999 0.000977516 0.000977516 
0.990412 -0.0200047 -1.54567 0 0 255 0.999999 0.000977516 0.000977516 
0.990412 -0.275148 -1.58786 0 0 255 0.999999 0.000977516 0.000977516 
0.990412 -0.463684 -1.69777 0 0 255 0.999999 0.000977516 0.000977516 
0.990412 0.248289 -1.09464 0 0 255 0.897119 -0.0416952 0.439817 
0.990412 -0.010502 -1.58508 0 0 255 0.999999 0.000977516 0.000977516 
0.990412 0.456462 -1.20877 0 0 255 0.999999 0.000977516 0.000977516 
0.990412 0.118375 -1.45728 0 0 255 0.999999 0.000977516 0.000977516 
0.990412 0.518804 -1.14993 0 0 255 0.999999 0.000977516 0.000977516 
0.990412 0.122146 -1.49393 0 0 255 0.999999 0.000977516 0.000977516 
0.990412 0.524712 -1.25537 0 0 255 0.999999 0.000977516 0.000977516 
0.990412 -0.402061 -1.82925 0 0 255 0.999999 0.000977516 0.000977516 
0.990412 -0.189188 -1.35644 0 0 255 0.999999 0.000977516 0.000977516 
0.990412 0.215381 -1.41611 0 0 255 0.999999 0.000977516 0.000977516 
0.990412 -0.217017 -1.68713 0 0 255 0.999999 0.000977516 0.000977516 
0.990412 -0.00998155 -1.39666 0 0 255 0.999999 0.000977516 0.000977516 
0.990412 0.282021 -1.19773 0 0 255 0.999999 0.000977516 0.000977516 
0.990412 0.376478 -1.30174 0 0 255 0.999999 0.000977516 0.000977516 
0.990412 0.365969 -1.10614 0 0 255 0.822515 -0.526471 0.215166 
0.990412 -0.246405 -1.67165 0 0 255 0.999999 0.000977516 0.000977516 
0.990412 -0.626886 -1.90055 0 0 255 0.999999 0.000977516 0.000977516 
0.990412 0.400566 -1.2955 0 0 255 0.999999 0.000977516 0.000977516 
0.990412 -0.00532312 -1.57621 0 0 255 0.999999 0.000977516 0.000977516 
0.990412 -0.477105 -1.87124 0 0 255 0.999999 0.000977516 0.000977516 
0.990412 -0.11988 -1.56171 0 0 255 0.999999 0.000977516 0.000977516 
0.990412 0.193759 -1.41768 0 0 255 0.999999 0.000977516 0.000977516 
0.990412 0.0901112 -1.45957 0 0 255 0.999999 0.000977516 0.000977516 
0.990412 0.086192 -1.46626 0 0 255 0.999999 0.000977516 0.000977516 
0.990412 0.0310867 -1.41356 0 0 255 0.999999 0.000977516 0.000977516 
0.990412 0.081839 -1.41741 0 0 255 0.999999 0.000977516 0.000977516 
0.990412 0.301333 -1.24615 0 0 255 0.999999 0.000977516 0.000977516 
0.990412 -0.397111 -1.7657 0 0 255 0.999999 0.000977516 0.000977516 
0.990412 -0.301643 -1.52342 0 0 255 0.999999 0.000977516 0.000977516 
0.990412 0.156065 -1.27344 0 0 255 0.999999 0.000977516 0.000977516 
0.990412 -0.523113 -1.86409 0 0 255 0.999999 0.000977516 0.000977516 
0.990412 0.448505 -1.17068 0 0 255 0.999999 0.000977516 0.000977516 
0.990412 -0.639899 -1.91144 0 0 255 0.999999 0.000977516 0.000977516 
0.990412 0.0249384 -1.12115 0 0 255 0.999999 0.000977516 0.000977516 
0.990412 -0.394283 -1.71696 0 0 255 0.999999 0.000977516 0.000977516 
0.990412 -0.457609 -1.69582 0 0 255 0.999999 0.000977516 0.000977516 
0.990412 -0.107093 -1.3495 0 0 255 0.999999 0.000977516 0.000977516 
0.990412 0.00438889 -1.37537 0 0 255 0.999999 0.000977516 0.000977516 
0.990412 -0.7827 -2.11294 0 0 255 0.942084 0.0996563 -0.320229 
0.990412 0.0153193 -1.29254 0 0 255 0.999999 0.000977516 0.000977516 
0.990412 0.0614002 -1.40982 0 0 255 0.999999 0.000977516 0.000977516 
0.990412 -0.436656 -1.89369 0 0 255 0.999999 0.000977516 0.000977516 
0.990412 -0.125566 -1.63172 0 0 255 0.999999 0.000977516 0.000977516 
0.990412 -0.20794 -1.43829 0 0 255 0.999999 0.000977516 0.000977516 
0.990412 -0.0829234 -1.59897 0 0 255 0.999999 0.000977516 0.000977516 
0.990412 -0.0439402 -1.43119 0 0 255 0.999999 0.000977516 0.000977516 
0.990412 0.293473 -1.3612 0 0 255 0 0 0 
0.990412 0.241799 -1.45278 0 0 255 0.999999 0.000977516 0.000977516 
0.990412 -0.269082 -1.42194 0 0 255 0.999999 0.000977516 0.000977516 
0.990412 0.287138 -1.19839 0 0 255 0.999999 0.000977516 0.000977516 
0.990412 -0.363957 -1.64043 0 0 255 0.999999 0.000977516 0.000977516 
0.990412 -0.443228 -1.7369 0 0 255 0.999999 0.000977516 0.000977516 
0.990412 -0.0613777 -1.23225 0 0 255 0.999999 0.000977516 0.000977516 
0.990412 0.413051 -1.2893 0 0 255 0.999999 0.000977516 0.000977516 
0.990412 -0.562206 -1.85495 0 0 255 0.999999 0.000977516 0.000977516 
0.990412 0.21626 -1.44675 0 0 255 0.999999 0.000977516 0.000977516 
0.990412 0.509053 -1.12113 0 0 255 0.999999 0.000977516 0.000977516 
0.990412 -0.0580813 -1.57843 0 0 255 0.999999 0.000977516 0.000977516 
0.990412 0.224584 -1.24297 0 0 255 0.999999 0.000977516 0.000977516 
0.990412 -0.074532 -1.5688 0 0 255 0.999999 0.000977516 0.000977516 
0.990412 -0.572855 -1.98779 0 0 255 0.999999 0.000977516 0.000977516 
0.990412 -0.198771 -1.54528 0 0 255 0.999999 0.000977516 0.000977516 
0.990412 0.216418 -1.16866 0 0 255 0.999999 0.000977516 0.000977516 
0.990412 -0.463892 -1.75572 0 0 255 0.999999 0.000977516 0.000977516 
0.990412 -0.459009 -1.71463 0 0 255 0.999999 0.000977516 0.000977516 
0.990412 0.424084 -1.26633 0 0 255 0.999999 0.000977516 0.000977516 
0.990412 -0.255661 -1.6373 0 0 255 0.999999 0.000977516 0.000977516 
0.990412 0.0380687 -1.32374 0 0 255 0.999999 0.000977516 0.000977516 
0.990412 0.155584 -1.29653 0 0 255 0.999999 0.000977516 0.000977516 
0.990412 0.0959976 -1.45111 0 0 255 0.999999 0.000977516 0.000977516 
0.990412 -0.313376 -1.53293 0 0 255 0.999999 0.000977516 0.000977516 
0.990412 -0.00843205 -1.53381 0 0 255 0.999999 0.000977516 0.000977516 
0.990412 -0.0500882 -1.13995 0 0 255 0.999999 0.000977516 0.000977516 
0.990412 0.346069 -1.13335 0 0 255 0.992283 -0.109751 0.057704 
0.990412 0.187785 -1.32246 0 0 255 0.999999 0.000977516 0.000977516 
0.990412 0.232622 -1.17983 0 0 255 0.999999 0.000977516 0.000977516 
0.990412 -0.435798 -1.72198 0 0 255 0.999999 0.000977516 0.000977516 
0.990412 -0.0259207 -1.40421 0 0 255 0.999999 0.000977516 0.000977516 
0.990412 0.148226 -1.17907 0 0 255 0.999999 0.000977516 0.000977516 
0.990412 -0.0631642 -1.37975 0 0 255 0.999999 0.000977516 0.000977516 
0.990412 0.692726 -1.11707 0 0 255 0.999999 0.000977516 0.000977516 
0.990412 0.171508 -1.48015 0 0 255 0.999999 0.000977516 0.000977516 
0.990412 -0.192472 -1.4447 0 0 255 0.999999 0.000977516 0.000977516 
0.990412 0.305511 -1.31725 0 0 255 0.999999 0.000977516 0.000977516 
0.990412 -0.411373 -1.61435 0 0 255 0.999999 0.000977516 0.000977516 
0.990412 -0.140718 -1.33705 0 0 255 0.999999 0.000977516 0.000977516 
0.990412 -0.20635 -1.52451 0 0 255 0 0 0 
0.990412 0.503211 -1.1215 0 0 255 0.999999 0.000977516 0.000977516 
0.990412 0.275284 -1.33445 0 0 255 0.999999 0.000977516 0.000977516 
0.990412 0.69861 -1.11854 0 0 255 0.999999 0.000977516 0.000977516 
0.990412 0.0739406 -1.4995 0 0 255 0.999999 0.000977516 0.000977516 
0.990412 -0.0675098 -1.64803 0 0 255 0.999999 0.000977516 0.000977516 
0.990412 0.327443 -1.1866 0 0 255 0.999999 0.000977516 0.000977516 
0.990412 -0.0877345 -1.41422 0 0 255 0.999999 0.000977516 0.000977516 
0.990412 0.231738 -1.10603 0 0 255 0.99683 -0.0377179 0.0700475 
0.990412 -0.249062 -1.39631 0 0 255 0.999999 0.000977516 0.000977516 
0.990412 -0.480294 -1.88245 0 0 255 0.999999 0.000977516 0.000977516 
0.990412 0.582836 -1.10272 0 0 255 0.940612 0.0293542 0.338212 
0.990412 -0.450129 -1.86314 0 0 255 0.999999 0.000977516 0.000977516 
0.990412 0.16178 -1.26858 0 0 255 0.999999 0.000977516 0.000977516 
0.990412 -0.475283 -1.87153 0 0 255 0.999999 0.000977516 0.000977516 
0.990412 0.509499 -1.23968 0 0 255 0.999999 0.000977516 0.000977516 
0.990412 0.0383876 -1.51864 0 0 255 0.999999 0.000977516 0.000977516 
0.990412 -0.304093 -1.6286 0 0 255 0.999999 0.000977516 0.000977516 
0.990412 0.114308 -1.37321 0 0 255 0.999999 0.000977516 0.000977516 
0.990412 -0.0328858 -1.40623 0 0 255 0.999999 0.000977516 0.000977516 
0.990412 0.109506 -1.08094 0 0 255 0.979604 -0.0664343 0.18964 
0.990412 -0.125016 -1.28071 0 0 255 0.999999 0.000977516 0.000977516 
0.990412 0.321882 -1.19018 0 0 255 0.999999 0.000977516 0.000977516 
0.990412 -0.17693 -1.30004 0 0 255 0.999999 0.000977516 0.000977516 
0.990412 0.0491325 -1.10888 0 0 255 0.997402 -0.0137209 0.0707153 
0.990412 0.0761803 -1.35732 0 0 255 0.999999 0.000977516 0.000977516 
0.990412 0.181438 -1.39319 0 0 255 0.999999 0.000977516 0.000977516 
0.990412 -0.79449 -2.11574 0 0 255 0.996929 0.0595343 -0.0508748 
0.990412 -0.227759 -1.61094 0 0 255 0.999999 0.000977516 0.000977516 
0.990412 0.200285 -1.35905 0 0 255 0.999999 0.000977516 0.000977516 
0.990412 0.505988 -1.09785 0 0 255 0.883232 -0.00929718 0.468844 
0.990412 -0.132845 -1.46824 0 0 255 0.999999 0.000977516 0.000977516 
0.990412 0.643042 -1.1149 0 0 255 0.983223 -0.0483939 0.175871 
0.990412 -0.574843 -1.8308 0 0 255 0.999999 0.000977516 0.000977516 
0.990412 0.696723 -1.14124 0 0 255 0.999999 0.000977516 0.000977516 
0.990412 -0.418122 -1.61508 0 0 255 0.999999 0.000977516 0.000977516 
0.990412 -0.201127 -1.66276 0 0 255 0.999999 0.000977516 0.000977516 
0.990412 -0.0051282 -1.48999 0 0 255 0.999999 0.000977516 0.000977516 
0.990412 -0.130456 -1.51927 0 0 255 0 0 0 
0.990412 0.265668 -1.18612 0 0 255 0.999999 0.000977516 0.000977516 
0.990412 0.198839 -1.38976 0 0 255 0.999999 0.000977516 0.000977516 
0.990412 0.0975931 -1.40903 0 0 255 0.999999 0.000977516 0.000977516 
0.990412 -0.0132377 -1.25065 0 0 255 0.999999 0.000977516 0.000977516 
0.990412 -0.546006 -1.8354 0 0 255 0 0 0 
0.990412 0.214601 -1.33756 0 0 255 0.999999 0.000977516 0.000977516 
0.990412 -0.112285 -1.60469 0 0 255 0.999999 0.000977516 0.000977516 
0.990412 0.109089 -1.47509 0 0 255 0.999999 0.000977516 0.000977516 
0.990412 0.254252 -1.25917 0 0 255 0.999999 0.000977516 0.000977516 
0.990412 -0.368457 -1.73777 0 0 255 0.999999 0.000977516 0.000977516 
0.990412 0.263216 -1.15013 0 0 255 0.999999 0.000977516 0.000977516 
0.990412 0.135553 -1.35113 0 0 255 0.999999 0.000977516 0.000977516 
0.990412 0.0243131 -1.46552 0 0 255 0.999999 0.000977516 0.000977516 
0.990412 0.191068 -1.33328 0 0 255 0.999999 0.000977516 0.000977516 
0.990412 0.0337105 -1.48024 0 0 255 0.999999 0.000977516 0.000977516 
0.990412 -0.192291 -1.53738 0 0 255 0.999999 0.000977516 0.000977516 
0.990412 -0.0467782 -1.13811 0 0 255 0.999999 0.000977516 0.000977516 
0.990412 -0.427342 -1.78414 0 0 255 0.999999 0.000977516 0.000977516 
0.990412 -0.0076507 -1.33496 0 0 255 0.999999 0.000977516 0.000977516 
0.990412 -0.0855827 -1.28539 0 0 255 0 0 0 
0.990412 0.05338 -1.19446 0 0 255 0.999999 0.000977516 0.000977516 
0.990412 0.364333 -1.22578 0 0 255 0.999999 0.000977516 0.000977516 
0.990412 0.517493 -1.15224 0 0 255 0.999999 0.000977516 0.000977516 
0.990412 0.735597 -1.08841 0 0 255 0.718413 -0.0954946 0.68903 
0.990412 0.216417 -1.46275 0 0 255 0.999999 0.000977516 0.000977516 
0.990412 0.449605 -1.21448 0 0 255 0.999999 0.000977516 0.000977516 
0.990412 -0.557938 -1.9716 0 0 255 0.999999 0.000977516 0.000977516 
0.990412 0.179529 -1.39878 0 0 255 0.999999 0.000977516 0.000977516 
0.990412 -0.529521 -1.85739 0 0 255 0.999999 0.000977516 0.000977516 
0.990412 -0.283432 -1.67186 0 0 255 0.999999 0.000977516 0.000977516 
0.990412 0.166745 -1.39137 0 0 255 0.999999 0.000977516 0.000977516 
0.990412 0.0502542 -1.52228 0 0 255 0.999999 0.000977516 0.000977516 
0.990412 0.0984487 -1.42086 0 0 255 0.999999 0.000977516 0.000977516 
0.990412 0.0902795 -1.33754 0 0 255 0.999999 0.000977516 0.000977516 
0.990412 0.494836 -1.15846 0 0 255 0.999999 0.000977516 0.000977516 
0.990412 0.0301993 -1.53973 0 0 255 0.999999 0.000977516 0.000977516 
0.990412 0.132091 -1.34447 0 0 255 0.999999 0.000977516 0.000977516 
0.990412 -0.514963 -1.73936 0 0 255 0.999999 0.000977516 0.000977516 
0.990412 -0.733444 -2.06237 0 0 255 0.999999 0.000977516 0.000977516 
0.990412 -0.0900873 -1.35469 0 0 255 0.999999 0.000977516 0.000977516 
0.990412 0.435478 -1.28137 0 0 255 0.999999 0.000977516 0.000977516 
0.990412 0.477397 -1.26031 0 0 255 0.999999 0.000977516 0.000977516 
0.990412 -0.167788 -1.55927 0 0 255 0.999999 0.000977516 0.000977516 
0.990412 -0.283289 -1.5638 0 0 255 0.999999 0.000977516 0.000977516 
0.990412 0.691355 -1.15991 0 0 255 0.999999 0.000977516 0.000977516 
0.990412 -0.436807 -1.65977 0 0 255 0.999999 0.000977516 0.000977516 
0.990412 0.242451 -1.319 0 0 255 0.999999 0.000977516 0.000977516 
0.990412 -0.115469 -1.38136 0 0 255 0.999999 0.000977516 0.000977516 
0.990412 -0.308407 -1.48573 0 0 255 0.999999 0.000977516 0.000977516 
0.990412 -0.540944 -1.94325 0 0 255 0.999999 0.000977516 0.000977516 
0.990412 -0.362259 -1.69068 0 0 255 0 0 0 
0.990412 0.419108 -1.19847 0 0 255 0.999999 0.000977516 0.000977516 
0.990412 0.151001 -1.08633 0 0 255 0.998861 0.0385379 -0.0281223 
0.990412 -0.0925962 -1.23827 0 0 255 0.999999 0.000977516 0.000977516 
0.990412 0.437918 -1.17415 0 0 255 0.999999 0.000977516 0.000977516 
0.990412 0.00341541 -1.17478 0 0 255 0.999999 0.000977516 0.000977516 
0.990412 0.235907 -1.12591 0 0 255 0.999999 0.000977516 0.000977516 
0.990412 0.0800571 -1.20281 0 0 255 0.999999 0.000977516 0.000977516 
0.990412 -0.144256 -1.30986 0 0 255 0.999999 0.000977516 0.000977516 
0.990412 0.0598036 -1.50824 0 0 255 0.999999 0.000977516 0.000977516 
0.990412 0.254051 -1.0957 0 0 255 0.929082 0.369854 0.00381292 
0.990412 0.161198 -1.07195 0 0 255 0.689247 0.0412127 0.723354 
0.990412 -0.475586 -1.89794 0 0 255 0.999999 0.000977516 0.000977516 
0.990412 0.0803793 -1.13264 0 0 255 0.999999 0.000977516 0.000977516 
0.990412 0.440776 -1.27271 0 0 255 0.999999 0.000977516 0.000977516 
0.990412 -0.289822 -1.44604 0 0 255 0.999999 0.000977516 0.000977516 
0.990412 -0.541716 -1.89473 0 0 255 0.999999 0.000977516 0.000977516 
0.990412 0.376891 -1.22511 0 0 255 0.999999 0.000977516 0.000977516 
0.990412 -0.417823 -1.7347 0 0 255 0.999999 0.000977516 0.000977516 
0.990412 -0.339573 -1.61368 0 0 255 0.999999 0.000977516 0.000977516 
0.990412 -0.347949 -1.63852 0 0 255 0.999999 0.000977516 0.000977516 
0.990412 -0.17399 -1.43579 0 0 255 0.999999 0.000977516 0.000977516 
0.990412 0.450327 -1.20372 0 0 255 0.999999 0.000977516 0.000977516 
0.990412 -0.269163 -1.44209 0 0 255 0.999999 0.000977516 0.000977516 
0.990412 -0.414561 -1.76851 0 0 255 0.999999 0.000977516 0.000977516 
0.990412 -0.0165061 -1.53743 0 0 255 0.999999 0.000977516 0.000977516 
0.990412 0.119354 -1.44325 0 0 255 0.999999 0.000977516 0.000977516 
0.990412 0.0257705 -1.20436 0 0 255 0.999999 0.000977516 0.000977516 
0.990412 0.0726756 -1.25711 0 0 255 0.999999 0.000977516 0.000977516 
0.990412 0.0453981 -1.13041 0 0 255 0.999999 0.000977516 0.000977516 
0.990412 0.592611 -1.22524 0 0 255 0.999999 0.000977516 0.000977516 
0.990412 -0.638502 -2.02513 0 0 255 0.999999 0.000977516 0.000977516 
0.990412 0.323867 -1.27066 0 0 255 0.999999 0.000977516 0.000977516 
0.990412 0.33889 -1.20782 0 0 255 0.999999 0.000977516 0.000977516 
0.990412 -0.383921 -1.85697 0 0 255 0.999999 0.000977516 0.000977516 
0.990412 -0.386319 -1.85911 0 0 255 0.999999 0.000977516 0.000977516 
0.990412 -0.0858346 -1.40016 0 0 255 0.999999 0.000977516 0.000977516 
0.990412 -0.239059 -1.63661 0 0 255 0.999999 0.000977516 0.000977516 
0.990412 -0.0763606 -1.83843 0 0 255 0.999999 0.000977516 0.000977516 
0.990412 -0.540144 -2.14354 0 0 255 0.999852 -0.00299058 -0.0169466 
0.990412 0.298874 -1.53899 0 0 255 0.999999 0.000977516 0.000977516 
0.990412 -0.66732 -2.05676 0 0 255 0.999999 0.000977516 0.000977516 
0.990412 -0.46719 -2.04998 0 0 255 0.999999 0.000977516 0.000977516 
0.990412 -0.0122357 -1.71347 0 0 255 0.999999 0.000977516 0.000977516 
0.990412 -0.456984 -1.99463 0 0 255 0.999999 0.000977516 0.000977516 
0.990412 -0.17169 -2.04319 0 0 255 0.999999 0.000977516 0.000977516 
0.990412 -0.306448 -1.84939 0 0 255 0.999999 0.000977516 0.000977516 
0.990412 -0.134808 -1.80828 0 0 255 0.999999 0.000977516 0.000977516 
0.990412 -0.581519 -2.09324 0 0 255 0.999999 0.000977516 0.000977516 
0.990412 -0.159473 -1.96096 0 0 255 0.999999 0.000977516 0.000977516 
0.990412 -0.270565 -2.05905 0 0 255 0.999999 0.000977516 0.000977516 
0.990412 0.369691 -1.39671 0 0 255 0.999999 0.000977516 0.000977516 
0.990412 0.622521 -1.26817 0 0 255 0.999999 0.000977516 0.000977516 
0.990412 -0.187055 -1.98166 0 0 255 0.999999 0.000977516 0.000977516 
0.990412 -0.133336 -2.01291 0 0 255 0.999999 0.000977516 0.000977516 
0.990412 0.585936 -1.301 0 0 255 0.999999 0.000977516 0.000977516 
0.990412 0.144867 -1.54118 0 0 255 0.999999 0.000977516 0.000977516 
0.990412 -0.023127 -1.81125 0 0 255 0.999999 0.000977516 0.000977516 
0.990412 0.0959216 -1.68914 0 0 255 0.999999 0.000977516 0.000977516 
0.990412 -0.307851 -2.1583 0 0 255 0.773184 -0.0950038 -0.627025 
0.990412 0.236584 -1.48577 0 0 255 0.999999 0.000977516 0.000977516 
0.990412 -0.211586 -2.0896 0 0 255 0.999999 0.000977516 0.000977516 
0.990412 0.566485 -1.27152 0 0 255 0.999999 0.000977516 0.000977516 
0.990412 -0.272369 -1.83668 0 0 255 0.999999 0.000977516 0.000977516 
0.990412 -0.292183 -2.03743 0 0 255 0.999999 0.000977516 0.000977516 
0.990412 0.0254003 -1.74247 0 0 255 0.999999 0.000977516 0.000977516 
0.990412 -0.724002 -2.14375 0 0 255 0.814938 -0.0640004 -0.576003 
0.990412 0.191719 -1.66503 0 0 255 0.999999 0.000977516 0.000977516 
0.990412 0.143875 -1.68438 0 0 255 0.999999 0.000977516 0.000977516 
0.990412 -0.410136 -2.14149 0 0 255 0.999999 0.000977516 0.000977516 
0.990412 -0.0402142 -1.66828 0 0 255 0.999999 0.000977516 0.000977516 
0.990412 -0.394757 -2.07567 0 0 255 0.999999 0.000977516 0.000977516 
0.990412 0.336668 -1.39658 0 0 255 0 0 0 
0.990412 0.109983 -1.78528 0 0 255 0.999999 0.000977516 0.000977516 
0.990412 0.29069 -1.53394 0 0 255 0.999999 0.000977516 0.000977516 
0.990412 -0.305557 -1.99853 0 0 255 0.999999 0.000977516 0.000977516 
0.990412 -0.00644158 -1.88312 0 0 255 0.999999 0.000977516 0.000977516 
0.990412 -0.181617 -2.00547 0 0 255 0.999999 0.000977516 0.000977516 
0.990412 0.537748 -1.26913 0 0 255 0.999999 0.000977516 0.000977516 
0.990412 -0.695786 -2.1333 0 0 255 0.943918 -0.0582666 -0.324998 
0.990412 0.4666 -1.32683 0 0 255 0.999999 0.000977516 0.000977516 
0.990412 0.193739 -1.61507 0 0 255 0.999999 0.000977516 0.000977516 
0.990412 0.0684732 -1.63243 0 0 255 0.999999 0.000977516 0.000977516 
0.990412 -0.4604 -2.0672 0 0 255 0.999999 0.000977516 0.000977516 
0.990412 -0.332318 -2.12923 0 0 255 0.999999 0.000977516 0.000977516 
0.990412 -0.333418 -2.14012 0 0 255 0.974219 -0.121934 -0.189816 
0.990412 -0.17036 -1.82546 0 0 255 0.999999 0.000977516 0.000977516 
0.990412 -0.266264 -2.12817 0 0 255 0.999999 0.000977516 0.000977516 
0.990412 -0.170293 -1.87313 0 0 255 0.999999 0.000977516 0.000977516 
0.990412 -0.16666 -1.93703 0 0 255 0.999999 0.000977516 0.000977516 
0.990412 -0.305647 -1.93261 0 0 255 0.999999 0.000977516 0.000977516 
0.990412 -0.403692 -2.05553 0 0 255 0.999999 0.000977516 0.000977516 
0.990412 0.426282 -1.45092 0 0 255 0.999999 0.000977516 0.000977516 
0.990412 0.171618 -1.69282 0 0 255 0.999999 0.000977516 0.000977516 
0.990412 0.363377 -1.43295 0 0 255 0.999999 0.000977516 0.000977516 
0.990412 -0.484276 -2.14409 0 0 255 0.643012 0.123256 -0.755873 
0.990412 0.310432 -1.46233 0 0 255 0.999999 0.000977516 0.000977516 
0.990412 -0.33256 -2.07363 0 0 255 0.999999 0.000977516 0.000977516 
0.990412 0.244441 -1.57186 0 0 255 0.999999 0.000977516 0.000977516 
0.990412 -0.260839 -1.99599 0 0 255 0.999999 0.000977516 0.000977516 
0.990412 -0.460677 -2.03445 0 0 255 0.999999 0.000977516 0.000977516 
0.990412 0.0562202 -1.59786 0 0 255 0.999999 0.000977516 0.000977516 
0.990412 -0.455604 -2.04189 0 0 255 0.999999 0.000977516 0.000977516 
0.990412 -0.0493858 -1.6533 0 0 255 0.999999 0.000977516 0.000977516 
0.990412 -0.295075 -1.82441 0 0 255 0.999999 0.000977516 0.000977516 
0.990412 -0.350354 -2.06251 0 0 255 0.999999 0.000977516 0.000977516 
0.990412 0.0551531 -1.83058 0 0 255 0.999999 0.000977516 0.000977516 
0.990412 0.123333 -1.69718 0 0 255 0.999999 0.000977516 0.000977516 
0.990412 -0.265255 -1.93005 0 0 255 0.999999 0.000977516 0.000977516 
0.990412 -0.416605 -1.95112 0 0 255 0.999999 0.000977516 0.000977516 
0.990412 0.254115 -1.6468 0 0 255 0.999999 0.000977516 0.000977516 
0.990412 0.129859 -1.73011 0 0 255 0.999999 0.000977516 0.000977516 
0.990412 0.554472 -1.26346 0 0 255 0.999999 0.000977516 0.000977516 
0.990412 -0.513063 -2.08271 0 0 255 0.999999 0.000977516 0.000977516 
0.990412 -0.226858 -2.05299 0 0 255 0.999999 0.000977516 0.000977516 
0.990412 0.577313 -1.29685 0 0 255 0.999999 0.000977516 0.000977516 
0.990412 -0.546953 -1.97545 0 0 255 0.999999 0.000977516 0.000977516 
0.990412 0.0446135 -1.73767 0 0 255 0.999999 0.000977516 0.000977516 
0.990412 -0.596553 -2.06892 0 0 255 0.999999 0.000977516 0.000977516 
0.990412 -0.301861 -1.83378 0 0 255 0 0 0 
0.990412 -0.0307962 -1.91636 0 0 255 0.999999 0.000977516 0.000977516 
0.990412 -0.062786 -1.70146 0 0 255 0.999999 0.000977516 0.000977516 
0.990412 -0.247228 -2.10642 0 0 255 0.999999 0.000977516 0.000977516 
0.990412 -0.479527 -2.03175 0 0 255 0.999999 0.000977516 0.000977516 
0.990412 -0.0176964 -1.71352 0 0 255 0.999999 0.000977516 0.000977516 
0.990412 0.138869 -1.69686 0 0 255 0.999999 0.000977516 0.000977516 
0.990412 0.116625 -1.60691 0 0 255 0.999999 0.000977516 0.000977516 
0.990412 0.459832 -1.36259 0 0 255 0.999999 0.000977516 0.000977516 
0.990412 0.635566 -1.21171 0 0 255 0 0 0 
0.990412 -0.0987065 -1.87306 0 0 255 0.999999 0.000977516 0.000977516 
0.990412 0.24679 -1.62899 0 0 255 0.999999 0.000977516 0.000977516 
0.990412 0.0244523 -1.79411 0 0 255 0.999999 0.000977516 0.000977516 
0.990412 -0.483881 -2.13631 0 0 255 0.999999 -0.000977516 -0.000977516 
0.990412 -0.186321 -1.89223 0 0 255 0.999999 0.000977516 0.000977516 
0.990412 -0.472689 -1.94426 0 0 255 0.999999 0.000977516 0.000977516 
0.990412 -0.0862075 -1.80048 0 0 255 0.999999 0.000977516 0.000977516 
0.990412 0.451158 -1.32111 0 0 255 0.999999 0.000977516 0.000977516 
0.990412 0.0368967 -1.72835 0 0 255 0.999999 0.000977516 0.000977516 
0.990412 -0.49352 -2.01453 0 0 255 0.999999 0.000977516 0.000977516 
0.990412 -0.281087 -2.14772 0 0 255 0.984684 -0.0172348 -0.173497 
0.990412 -0.0321269 -1.77528 0 0 255 0.999999 0.000977516 0.000977516 
0.990412 -0.210135 -1.94899 0 0 255 0.999999 0.000977516 0.000977516 
0.990412 0.44655 -1.44227 0 0 255 0.999999 0.000977516 0.000977516 
0.990412 0.389004 -1.5096 0 0 255 0.999999 0.000977516 0.000977516 
0.990412 -0.245873 -1.99586 0 0 255 0.999999 0.000977516 0.000977516 
0.990412 -0.400167 -2.08941 0 0 255 0.999999 0.000977516 0.000977516 
0.990412 -0.133158 -1.96195 0 0 255 0.999999 0.000977516 0.000977516 
0.990412 0.125196 -1.58926 0 0 255 0.999999 0.000977516 0.000977516 
0.990412 -0.224574 -1.81785 0 0 255 0.999999 0.000977516 0.000977516 
0.990412 -0.156068 -2.0169 0 0 255 0.999999 0.000977516 0.000977516 
0.990412 -0.39147 -1.90723 0 0 255 0.999999 0.000977516 0.000977516 
0.990412 -0.69725 -2.12095 0 0 255 0.999999 0.000977516 0.000977516 
0.990412 -0.463327 -2.05732 0 0 255 0.999999 0.000977516 0.000977516 
0.990412 -0.0793984 -1.81175 0 0 255 0.999999 0.000977516 0.000977516 
0.990412 -0.579736 -2.07684 0 0 255 0.999999 0.000977516 0.000977516 
0.990412 -0.399362 -1.9617 0 0 255 0 0 0 
0.990412 -0.162358 -2.0247 0 0 255 0.999999 0.000977516 0.000977516 
0.990412 0.256806 -1.48782 0 0 255 0.999999 0.000977516 0.000977516 
0.990412 -0.0599046 -1.67414 0 0 255 0.999999 0.000977516 0.000977516 
0.990412 0.0130165 -1.64479 0 0 255 0.999999 0.000977516 0.000977516 
0.990412 -0.534158 -2.16096 0 0 255 -0.559109 0.0815069 0.825078 
0.990412 -0.230177 -1.83371 0 0 255 0.999999 0.000977516 0.000977516 
0.990412 -0.567131 -2.15766 0 0 255 0.698771 -0.153093 -0.698771 
0.990412 0.17139 -1.71323 0 0 255 0.999999 0.000977516 0.000977516 
0.990412 -0.161897 -1.776 0 0 255 0.999999 0.000977516 0.000977516 
0.990412 -0.0553268 -1.73566 0 0 255 0.999999 0.000977516 0.000977516 
0.990412 -0.444169 -2.12565 0 0 255 0.999999 0.000977516 0.000977516 
0.990412 0.131529 -1.74029 0 0 255 0.999999 0.000977516 0.000977516 
0.990412 -0.306258 -1.93947 0 0 255 0.999999 0.000977516 0.000977516 
0.990412 -0.198282 -1.76128 0 0 255 0.999999 0.000977516 0.000977516 
0.990412 0.0944203 -1.76946 0 0 255 0.999999 0.000977516 0.000977516 
0.990412 0.012313 -1.65596 0 0 255 0.999999 0.000977516 0.000977516 
0.990412 0.258706 -1.46465 0 0 255 0.999999 0.000977516 0.000977516 
0.990412 -0.0521462 -1.84246 0 0 255 0.999999 0.000977516 0.000977516 
0.990412 -0.269904 -1.81717 0 0 255 0.999999 0.000977516 0.000977516 
0.990412 -0.735059 -2.13798 0 0 255 0.973002 -0.106716 -0.204644 
0.990412 0.425075 -1.3455 0 0 255 0.999999 0.000977516 0.000977516 
0.990412 0.566226 -1.24574 0 0 255 0.999999 0.000977516 0.000977516 
0.990412 0.27572 -1.59924 0 0 255 0.999999 0.000977516 0.000977516 
0.990412 0.7777 -1.11939 0 0 255 0.906374 0.246662 0.342992 
0.990412 -0.144642 -1.76103 0 0 255 0.999999 0.000977516 0.000977516 
0.990412 0.105964 -1.7854 0 0 255 0.999999 0.000977516 0.000977516 
0.990412 -0.347675 -2.133 0 0 255 0.996878 -0.00105267 -0.0789502 
0.990412 -0.22848 -1.96488 0 0 255 0.999999 0.000977516 0.000977516 
0.990412 0.0978422 -1.63106 0 0 255 0.999999 0.000977516 0.000977516 
0.990412 -0.211136 -2.09883 0 0 255 0.999999 0.000977516 0.000977516 
0.990412 -0.0441179 -1.76892 0 0 255 0.999999 0.000977516 0.000977516 
0.990412 -0.0194438 -1.69532 0 0 255 0.999999 0.000977516 0.000977516 
0.990412 0.192753 -1.52521 0 0 255 0.999999 0.000977516 0.000977516 
0.990412 -0.248763 -1.90491 0 0 255 0.999999 0.000977516 0.000977516 
0.990412 0.235096 -1.62616 0 0 255 0.999999 0.000977516 0.000977516 
0.990412 -0.345841 -2.01945 0 0 255 0.999999 0.000977516 0.000977516 
0.990412 -0.21247 -1.94134 0 0 255 0.999999 0.000977516 0.000977516 
0.990412 0.238616 -1.53764 0 0 255 0.999999 0.000977516 0.000977516 
0.990412 -0.679402 -2.07 0 0 255 0.999999 0.000977516 0.000977516 
0.990412 -0.403206 -2.09813 0 0 255 0.999999 0.000977516 0.000977516 
0.990412 -0.422154 -2.01174 0 0 255 0.999999 0.000977516 0.000977516 
0.990412 0.275548 -1.58055 0 0 255 0.999999 0.000977516 0.000977516 
0.990412 -0.820379 -2.15569 0 0 255 0.972622 -0.174182 -0.15384 
0.990412 -0.456665 -1.96729 0 0 255 0.999999 0.000977516 0.000977516 
0.990412 -0.563277 -2.01192 0 0 255 0.999999 0.000977516 0.000977516 
0.990412 -0.0583665 -1.704 0 0 255 0.999999 0.000977516 0.000977516 
0.990412 -0.159914 -1.81027 0 0 255 0.999999 0.000977516 0.000977516 
0.990412 -0.539936 -2.07202 0 0 255 0.999999 0.000977516 0.000977516 
0.990412 -0.195241 -1.84661 0 0 255 0.999999 0.000977516 0.000977516 
0.990412 -0.446548 -2.09169 0 0 255 0.999999 0.000977516 0.000977516 
0.990412 -0.125311 -1.87704 0 0 255 0.999999 0.000977516 0.000977516 
0.990412 -0.53828 -1.97527 0 0 255 0.999999 0.000977516 0.000977516 
0.990412 -0.533549 -2.11772 0 0 255 0.999999 0.000977516 -0.000977516 
0.990412 -0.211507 -1.90516 0 0 255 0.999999 0.000977516 0.000977516 
0.990412 0.0257671 -1.64007 0 0 255 0.999999 0.000977516 0.000977516 
0.990412 -0.250264 -2.11553 0 0 255 0.999999 0.000977516 0.000977516 
0.990412 0.713976 -1.17573 0 0 255 0.999999 0.000977516 0.000977516 
0.990412 0.0610183 -1.75898 0 0 255 0.999999 0.000977516 0.000977516 
0.990412 0.0891972 -1.67826 0 0 255 0.999999 0.000977516 0.000977516 
0.990412 -0.650595 -2.11429 0 0 255 0.998124 0.00310942 -0.0611519 
0.990412 -0.43131 -2.05585 0 0 255 0.999999 0.000977516 0.000977516 
0.990412 0.0236521 -1.65882 0 0 255 0.999999 0.000977516 0.000977516 
0.990412 -0.221608 -2.05374 0 0 255 0.999999 0.000977516 0.000977516 
0.990412 -0.421951 -2.1573 0 0 255 0.484885 -0.0174612 -0.874404 
0.990412 -0.598139 -2.12354 0 0 255 0.965018 -0.119822 -0.233202 
0.990412 -0.667938 -2.12696 0 0 255 0.994482 0.0634776 -0.0835231 
0.990412 0.548625 -1.27154 0 0 255 0.999999 0.000977516 0.000977516 
0.990412 -0.235601 -2.08542 0 0 255 0.999999 0.000977516 0.000977516 
0.990412 0.237651 -1.64067 0 0 255 0.999999 0.000977516 0.000977516 
0.990412 -0.295388 -2.01689 0 0 255 0.999999 0.000977516 0.000977516 
0.990412 -0.471847 -2.15912 0 0 255 -0.766899 0.0826338 0.636425 
0.990412 -0.0280026 -1.82867 0 0 255 0.999999 0.000977516 0.000977516 
0.990412 0.364543 -1.46686 0 0 255 0.999999 0.000977516 0.000977516 
0.990412 -0.400688 -2.14295 0 0 255 0.973063 0.0424125 -0.226604 
0.990412 -0.330529 -2.1292 0 0 255 0.999999 0.000977516 0.000977516 
0.990412 -0.0048658 -1.80502 0 0 255 0.999999 0.000977516 0.000977516 
0.990412 -0.222103 -2.04001 0 0 255 0.999999 0.000977516 0.000977516 
0.990412 -0.0398893 -1.68664 0 0 255 0.999999 0.000977516 0.000977516 
0.990412 -0.211077 -1.78583 0 0 255 0.999999 0.000977516 0.000977516 
0.990412 -0.570876 -2.08156 0 0 255 0.999999 0.000977516 0.000977516 
0.984468 0.220948 -1.06495 0 0 255 0.741665 0.233632 0.628768 
0.985973 0.212328 -1.06495 0 0 255 0.940146 0.0164494 0.340376 
0.899424 -0.0275965 -0.975654 0 0 255 0.708464 -0.00974312 0.70568 
0.940428 -0.0693079 -1.01918 0 0 255 0.70642 -0.0440624 0.70642 
0.718267 -0.00573365 -0.793175 0 0 255 0.823852 0.0579381 0.563837 
0.898472 -0.0377138 -0.975314 0 0 255 0.70642 -0.0440624 0.70642 
0.884231 -0.0128244 -0.959568 0 0 255 0.70699 -0.0181997 0.70699 
0.795309 -0.0275122 -0.871534 0 0 255 0.705546 -0.0210401 0.708352 
0.94422 -0.053064 -1.02199 0 0 255 0.70642 -0.0440624 0.70642 
0.981665 -0.0569233 -1.05967 0 0 255 0.859031 -0.017642 0.511619 
0.959098 -0.0254009 -1.0352 0 0 255 0.715286 -0.0238897 0.698423 
0.828552 -0.0488257 -0.906066 0 0 255 0.706322 -0.0470882 0.706322 
0.948518 -0.015741 -1.02403 0 0 255 0.711214 -0.0125263 0.702864 
0.977024 -0.109891 -1.05823 0 0 255 0.781203 -0.0614108 0.621249 
0.868403 -0.0403917 -0.945407 0 0 255 0.703826 -0.0354037 0.70949 
0.8053 -0.0314015 -0.881761 0 0 255 0.704256 -0.0125511 0.709835 
0.967774 -0.0738337 -1.0468 0 0 255 0.70642 -0.0440624 0.70642 
0.973781 0.0298409 -1.0501 0 0 255 0.708475 0.00693224 0.705702 
0.971827 0.0895943 -1.05176 0 0 255 0.846511 -0.00948093 0.532286 
0.837693 0.0371732 -0.914457 0 0 255 0.702786 0.0181635 0.711169 
0.912811 0.0830396 -0.99235 0 0 255 0.704179 0.0648018 0.707059 
0.861703 0.0164705 -0.937215 0 0 255 0.708352 0.0210401 0.705546 
0.855918 0.0371699 -0.932682 0 0 255 0.70642 0.0440624 0.70642 
0.970262 0.106506 -1.05122 0 0 255 0.755354 -0.0125197 0.655197 
0.894969 0.0379236 -0.971779 0 0 255 0.722112 0.0295601 0.691144 
0.94331 0.0972925 -1.02371 0 0 255 0.70642 0.0440624 0.70642 
0.84656 0.0514043 -0.924185 0 0 255 0.706322 0.0470882 0.706322 
0.855295 0.0122013 -0.930549 0 0 255 0.695874 -0.00972279 0.718098 
0.982159 0.0265437 -1.05828 0 0 255 0.920784 0.0142456 0.389812 
0.864646 0.065491 -0.943124 0 0 255 0.704446 0.0588234 0.707316 
0.972911 0.0372694 -1.04968 0 0 255 0.781203 0.0614108 0.621249 
0.883026 0.0155293 -0.958481 0 0 255 0.715236 0.0266984 0.698373 
0.776066 -0.0867728 -0.856649 0 0 255 0.707432 -0.0559632 0.704562 
0.772087 -0.0332833 -0.848709 0 0 255 0.705502 -0.023844 0.708307 
0.920635 -0.0930304 -1.00083 0 0 255 0.699685 -0.0678046 0.711226 
0.749284 -0.0894089 -0.830222 0 0 255 0.703133 -0.0558497 0.708861 
0.859325 -0.112082 -0.941302 0 0 255 0.700649 -0.0768828 0.709352 
0.849622 -0.0729595 -0.928741 0 0 255 0.706322 -0.0470882 0.706322 
0.717394 -0.0328458 -0.794307 0 0 255 0.97296 -0.119575 -0.197613 
0.903955 -0.0893172 -0.983972 0 0 255 0.705614 -0.0649338 0.705614 
0.955965 -0.110563 -1.03726 0 0 255 0.702092 -0.0770411 0.707906 
0.850011 -0.0815695 -0.929769 0 0 255 0.701415 -0.061932 0.710057 
0.724027 -0.0885968 -0.805054 0 0 255 0.767346 -0.0616746 0.63826 
0.726054 -0.0413513 -0.803549 0 0 255 0.731526 -0.0440336 0.68039 
0.769161 -0.0863039 -0.84975 0 0 255 0.703243 -0.0529939 0.708972 
0.717441 -0.0294484 -0.7941 0 0 255 0.956656 -0.0439986 0.287877 
0.950262 -0.15622 -1.03915 0 0 255 0.682292 -0.104628 0.723554 
0.924506 -0.205457 -1.0226 0 0 255 0.698374 -0.127113 0.704355 
0.867073 -0.127079 -0.951627 0 0 255 0.702227 -0.117285 0.702227 
0.784732 -0.109812 -0.867098 0 0 255 0.687229 -0.117259 0.716915 
0.887272 -0.197143 -0.984288 0 0 255 0.692906 -0.136777 0.707936 
0.720369 -0.108134 -0.803166 0 0 255 0.918342 -0.192211 0.34598 
0.797046 -0.145248 -0.885691 0 0 255 0.694092 -0.140023 0.706137 
0.838282 -0.128148 -0.923358 0 0 255 0.693809 -0.11095 0.711561 
0.959339 -0.190449 -1.05432 0 0 255 0.602482 -0.0977392 0.792125 
0.818167 -0.133206 -0.904389 0 0 255 0.702468 -0.114355 0.702468 
0.952584 -0.221264 -1.05322 0 0 255 0.616845 -0.148583 0.772933 
0.905543 -0.143409 -0.992616 0 0 255 0.699492 -0.114354 0.705432 
0.80266 -0.119106 -0.886504 0 0 255 0.705752 -0.0891322 0.70283 
0.946736 -0.175058 -1.03907 0 0 255 0.683739 -0.136748 0.716799 
0.927352 -0.13787 -1.01317 0 0 255 0.697024 -0.108031 0.708863 
0.88877 -0.301195 -1.01429 0 0 255 0.677164 -0.210154 0.705184 
0.88828 -0.315458 -1.01809 0 0 255 0.671715 -0.223905 0.706162 
0.875388 -0.229222 -0.979891 0 0 255 0.685725 -0.172577 0.707106 
0.92495 -0.320773 -1.05491 0 0 255 0.47916 -0.15972 0.863073 
0.868823 -0.240046 -0.976824 0 0 255 0.677164 -0.210154 0.705184 
0.892986 -0.311658 -1.02148 0 0 255 0.677164 -0.210154 0.705184 
0.920159 -0.274726 -1.03652 0 0 255 0.577101 -0.154393 0.801946 
0.870815 -0.286941 -0.992777 0 0 255 0.675026 -0.213576 0.706205 
0.842087 -0.270165 -0.960156 0 0 255 0.677164 -0.210154 0.705184 
0.909101 -0.279261 -1.02726 0 0 255 0.68347 -0.199926 0.702067 
0.75661 -0.227296 -0.865204 0 0 255 0.673576 -0.202847 0.710738 
0.875715 -0.234451 -0.98177 0 0 255 0.68347 -0.199926 0.702067 
0.694643 -0.209674 -0.800398 0 0 255 0.917252 -0.343791 0.201139 
0.772739 -0.236977 -0.883598 0 0 255 0.693675 -0.234371 0.681091 
0.90533 -0.282671 -1.02466 0 0 255 0.677164 -0.210154 0.705184 
0.782053 -0.206578 -0.88432 0 0 255 0.700305 -0.166303 0.694202 
0.889751 -0.21488 -0.990503 0 0 255 0.686567 -0.165933 0.707879 
0.761905 -0.206116 -0.864696 0 0 255 0.684952 -0.16628 0.70936 
0.85479 -0.188314 -0.950754 0 0 255 0.689576 -0.139718 0.710608 
0.855966 -0.2239 -0.959763 0 0 255 0.669513 -0.176188 0.721603 
0.704055 -0.169355 -0.800518 0 0 255 0 0 0 
0.750324 -0.207609 -0.853806 0 0 255 0.666545 -0.196406 0.719126 
0.909857 -0.213424 -1.00966 0 0 255 0.690535 -0.183015 0.699762 
0.785642 -0.170277 -0.87977 0 0 255 0.682735 -0.146193 0.715892 
0.791996 -0.181777 -0.888468 0 0 255 0.725995 -0.175767 0.664859 
0.776938 -0.216756 -0.881614 0 0 255 0.683379 -0.189742 0.704976 
0.718653 -0.190245 -0.819281 0 0 255 0.687372 -0.159325 0.708615 
0.69163 -0.171042 -0.788852 0 0 255 0.987348 0.156378 0.0262532 
0.828869 -0.365929 -0.982113 0 0 255 0.647068 -0.290619 0.704871 
0.75923 -0.355096 -0.913792 0 0 255 0.646274 -0.30138 0.70107 
0.678082 -0.31389 -0.822386 0 0 255 0.638119 -0.300575 0.708843 
0.828411 -0.379202 -0.98717 0 0 255 0.638952 -0.304186 0.706549 
0.736534 -0.367884 -0.89826 0 0 255 0.627517 -0.322677 0.708592 
0.771211 -0.333063 -0.915686 0 0 255 0.66244 -0.265294 0.700566 
0.890604 -0.427212 -1.064 0 0 255 0.418926 -0.172499 0.891485 
0.843853 -0.432359 -1.02326 0 0 255 0.636208 -0.301192 0.710298 
0.674931 -0.311147 -0.818366 0 0 255 0.608019 -0.29679 0.736361 
0.780018 -0.35179 -0.931488 0 0 255 0.640587 -0.311419 0.701902 
0.835196 -0.356631 -0.984077 0 0 255 0.656805 -0.276465 0.701551 
0.838957 -0.398699 -1.00488 0 0 255 0.631103 -0.308288 0.711806 
0.842298 -0.392593 -1.00543 0 0 255 0.675713 -0.27955 0.682103 
0.700043 -0.327972 -0.848333 0 0 255 0.629332 -0.315475 0.710223 
0.837424 -0.388 -0.999063 0 0 255 0.647068 -0.290619 0.704871 
0.749129 -0.254022 -0.866214 0 0 255 0.659344 -0.230222 0.715725 
0.730567 -0.27379 -0.856222 0 0 255 0.655302 -0.234149 0.71816 
0.737869 -0.282345 -0.866082 0 0 255 0.655517 -0.258715 0.709482 
0.663504 -0.286448 -0.798794 0 0 255 0.699499 -0.286523 0.65468 
0.679732 -0.28167 -0.812068 0 0 255 0.655517 -0.258715 0.709482 
0.750888 -0.317483 -0.890876 0 0 255 0.649624 -0.279322 0.707084 
0.700646 -0.305823 -0.840178 0 0 255 0.6559 -0.265219 0.706721 
0.664333 -0.239379 -0.782476 0 0 255 0.849522 -0.523755 0.0631876 
0.648933 -0.265515 -0.777721 0 0 255 0.905331 -0.41025 0.109864 
0.6725 -0.2976 -0.811163 0 0 255 0.622016 -0.289421 0.727551 
0.848237 -0.316287 -0.980474 0 0 255 0.665205 -0.251229 0.703126 
0.84374 -0.306986 -0.972938 0 0 255 0.651693 -0.244582 0.717967 
0.742947 -0.303468 -0.878445 0 0 255 0.654085 -0.265772 0.708194 
0.749752 -0.280901 -0.876547 0 0 255 0.67219 -0.248315 0.697496 
0.729204 -0.487251 -0.952415 0 0 255 0.595192 -0.387452 0.704008 
0.757964 -0.487049 -0.976987 0 0 255 0.597931 -0.390384 0.700056 
0.726404 -0.441112 -0.926079 0 0 255 0.60808 -0.362226 0.706422 
0.681986 -0.433616 -0.884079 0 0 255 0.593183 -0.382858 0.708205 
0.628589 -0.405215 -0.823531 0 0 255 0.596051 -0.379305 0.707708 
0.839653 -0.521118 -1.06475 0 0 255 0.281646 -0.217189 0.934615 
0.706171 -0.47636 -0.927002 0 0 255 0.598903 -0.37575 0.707197 
0.800591 -0.506449 -1.02363 0 0 255 0.605283 -0.365795 0.706984 
0.849907 -0.453836 -1.03865 0 0 255 0.482773 -0.277866 0.830494 
0.799798 -0.508151 -1.02383 0 0 255 0.568377 -0.381648 0.728898 
0.642765 -0.414601 -0.840563 0 0 255 0.591676 -0.387309 0.707044 
0.690532 -0.458763 -0.904456 0 0 255 0.575045 -0.400389 0.713451 
0.732257 -0.445006 -0.933121 0 0 255 0.607356 -0.365068 0.705581 
0.764006 -0.483081 -0.980113 0 0 255 0.605283 -0.365795 0.706984 
0.802407 -0.479047 -1.01097 0 0 255 0.607356 -0.365068 0.705581 
0.734754 -0.410034 -0.917503 0 0 255 0.610159 -0.354972 0.708308 
0.685842 -0.399741 -0.870185 0 0 255 0.610159 -0.354972 0.708308 
0.767213 -0.424785 -0.952847 0 0 255 0.610159 -0.354972 0.708308 
0.609971 -0.390333 -0.800055 0 0 255 -0.65985 0.452707 -0.599712 
0.843719 -0.43893 -1.02589 0 0 255 0.610159 -0.354972 0.708308 
0.798386 -0.42918 -0.981926 0 0 255 0.629332 -0.315475 0.710223 
0.799664 -0.442496 -0.98966 0 0 255 0.614229 -0.347031 0.708726 
0.742625 -0.390935 -0.91478 0 0 255 0.637018 -0.325803 0.698613 
0.631958 -0.348602 -0.798237 0 0 255 0.802915 -0.456748 0.383027 
0.777194 -0.436864 -0.967473 0 0 255 0.60808 -0.362226 0.706422 
0.656807 -0.389689 -0.840134 0 0 255 0.618368 -0.344263 0.706473 
0.755478 -0.424118 -0.942393 0 0 255 0.609449 -0.357826 0.707483 
0.61457 -0.373496 -0.795636 0 0 255 -0.697466 0.394077 -0.598535 
0.722617 -0.541481 -0.979355 0 0 255 0.57183 -0.425972 0.701113 
0.783031 -0.576984 -1.04887 0 0 255 0.558897 -0.388442 0.73263 
0.669123 -0.532837 -0.93187 0 0 255 0.552365 -0.43957 0.708288 
0.798701 -0.577218 -1.06137 0 0 255 0.197062 -0.176182 0.964431 
0.732447 -0.581258 -1.01165 0 0 255 0.556774 -0.437109 0.706355 
0.624796 -0.458833 -0.85126 0 0 255 0.5721 -0.41954 0.704761 
0.699927 -0.488578 -0.92882 0 0 255 0.561108 -0.425383 0.710075 
0.659176 -0.515156 -0.913118 0 0 255 0.558043 -0.428881 0.710387 
0.75005 -0.566264 -1.01627 0 0 255 0.556774 -0.437109 0.706355 
0.768679 -0.592868 -1.04737 0 0 255 0.491147 -0.416088 0.765275 
0.737166 -0.576348 -1.01234 0 0 255 0.556774 -0.437109 0.706355 
0.807483 -0.563984 -1.06011 0 0 255 0.386937 -0.313526 0.867168 
0.642122 -0.484297 -0.880631 0 0 255 0.571553 -0.415826 0.707401 
0.711329 -0.519905 -0.957142 0 0 255 0.559869 -0.433608 0.706067 
0.729179 -0.513143 -0.967032 0 0 255 0.587933 -0.415693 0.693926 
0.750654 -0.588489 -1.03047 0 0 255 0.556774 -0.437109 0.706355 
0.638112 -0.490276 -0.881165 0 0 255 0.552365 -0.43957 0.708288 
0.661537 -0.57523 -0.952293 0 0 255 0.545634 -0.442809 0.71148 
0.608049 -0.515309 -0.873287 0 0 255 0.552365 -0.43957 0.708288 
0.536342 -0.46772 -0.787738 0 0 255 0.701507 -0.704461 0.107811 
0.625824 -0.511562 -0.884822 0 0 255 0.552365 -0.43957 0.708288 
0.602271 -0.441727 -0.823001 0 0 255 0.570215 -0.414852 0.70905 
0.569699 -0.448072 -0.801537 0 0 255 -0.73939 0.58407 -0.33491 
0.5739 -0.419973 -0.787334 0 0 255 0.849515 -0.333904 0.408451 
0.666735 -0.583936 -0.961765 0 0 255 0.55054 -0.444091 0.706887 
0.636557 -0.540932 -0.911468 0 0 255 0.55054 -0.444091 0.706887 
0.700946 -0.62254 -1.01247 0 0 255 0.544248 -0.451044 0.707356 
0.69099 -0.577986 -0.976986 0 0 255 0.556774 -0.437109 0.706355 
0.638935 -0.513143 -0.896034 0 0 255 0.552365 -0.43957 0.708288 
0.69194 -0.645208 -1.02204 0 0 255 0.502413 -0.499075 0.706049 
0.580551 -0.589726 -0.903507 0 0 255 0.499075 -0.502413 0.706049 
0.732005 -0.658484 -1.05993 0 0 255 0.23303 -0.15667 0.959767 
0.706884 -0.668841 -1.04944 0 0 255 0.471462 -0.406657 0.78253 
0.631029 -0.575426 -0.929206 0 0 255 0.522951 -0.463185 0.715529 
0.656434 -0.59103 -0.958336 0 0 255 0.524218 -0.474292 0.707278 
0.584858 -0.533093 -0.866338 0 0 255 0.524218 -0.474292 0.707278 
0.666386 -0.665231 -1.01811 0 0 255 0.501575 -0.501575 0.704872 
0.678709 -0.608005 -0.986216 0 0 255 0.515651 -0.485613 0.705892 
0.67232 -0.692849 -1.04195 0 0 255 0.407678 -0.420468 0.810559 
0.664023 -0.661327 -1.01366 0 0 255 0.494219 -0.500875 0.710544 
0.733817 -0.650977 -1.05589 0 0 255 0.525247 -0.452342 0.720765 
0.647352 -0.585122 -0.947688 0 0 255 -0.523806 0.470594 -0.710048 
0.569452 -0.543009 -0.862439 0 0 255 -0.492036 0.50538 -0.708866 
0.637171 -0.594482 -0.947104 0 0 255 0.501575 -0.501575 0.704872 
