ply
format ascii 1.0
comment Created by Open3D
element vertex 1451
property double x
property double y
property double z
property uchar red
property uchar green
property uchar blue
end_header
-15.3097 4.39659 -5.83014 0 0 255
-14.7051 5.97611 183.656 0 0 255
-15.2546 4.57092 307.277 0 0 255
-14.5727 6.30849 93.1598 0 0 255
-15.3386 4.36157 379.026 0 0 255
-14.5572 6.3473 81.9639 0 0 255
-15.0712 5.0499 363.617 0 0 255
-14.9115 5.44473 193.993 0 0 255
-15.0438 5.08894 54.6945 0 0 255
-15.3956 4.18707 111.549 0 0 255
-14.8601 5.57672 189.435 0 0 255
-14.8767 5.5049 -92.9711 0 0 255
-15.4709 3.98511 38.6871 0 0 255
-15.0106 5.1919 223.118 0 0 255
-14.6736 6.03271 -56.9401 0 0 255
-15.2518 4.54372 -29.5679 0 0 255
-14.7739 5.79075 106.58 0 0 255
-15.3207 4.40023 305.864 0 0 255
-15.5243 3.84123 -21.7158 0 0 255
-15.3949 4.18905 113.309 0 0 255
-15.2749 4.49937 119.719 0 0 255
-14.8096 5.67971 -77.577 0 0 255
-15.4075 4.16686 213.253 0 0 255
-15.0173 5.18272 301.435 0 0 255
-15.2931 4.43856 -13.3133 0 0 255
-15.4678 4.03492 445.424 0 0 255
-15.123 4.87774 -13.3398 0 0 255
-15.2844 4.48397 209.584 0 0 255
-14.3267 6.79665 -129.572 0 0 255
-15.0335 5.11276 575.421 0 0 255
-14.486 6.46819 402.161 0 0 255
-14.7217 5.91885 300.408 0 0 255
-14.4001 6.63373 618.322 0 0 255
-14.8405 5.61814 372.194 0 0 255
-14.3902 6.75635 108.931 0 0 255
-14.4826 6.49635 298.837 0 0 255
-13.9458 7.73457 596.74 0 0 255
-14.6263 6.15602 264.772 0 0 255
-14.3838 6.73559 295.622 0 0 255
-14.0761 7.44554 465.307 0 0 255
-14.053 7.52262 355.629 0 0 255
-15.1141 4.91401 597.742 0 0 255
-14.2318 7.14568 72.8159 0 0 255
-15.2349 4.63484 532.594 0 0 255
-15.1265 4.89924 519.329 0 0 255
-14.9174 5.39744 552.539 0 0 255
-14.4138 6.69698 120.939 0 0 255
-13.9689 7.67807 601.281 0 0 255
-14.2577 7.04482 270.394 0 0 255
-13.8883 7.87184 604.788 0 0 255
-14.7204 5.88486 491.758 0 0 255
-14.4557 6.60027 98.0055 0 0 255
-14.9569 5.34235 345.115 0 0 255
-14.847 5.57828 497.355 0 0 255
-14.8738 5.50604 536.453 0 0 255
-14.3975 6.73794 112.401 0 0 255
-14.3946 6.72137 234.489 0 0 255
-15.0762 5.03982 420.279 0 0 255
-15.1932 4.72209 602.28 0 0 255
-14.3216 6.90795 180.345 0 0 255
-15.0193 5.13973 613.173 0 0 255
-14.2063 7.20868 65.5242 0 0 255
-14.4163 6.61304 522.71 0 0 255
-14.0967 7.45894 139.671 0 0 255
-14.4381 6.53997 628.816 0 0 255
-14.1842 7.18849 444.722 0 0 255
2.7363 6.37418 633.066 0 0 255
1.57586 5.37911 633.066 0 0 255
-6.89933 5.98705 633.066 0 0 255
-14.4515 -6.71319 581.381 0 0 255
-15.3602 -4.5193 575.762 0 0 255
-15.1363 -5.0598 632.35 0 0 255
-14.9847 -5.42573 387.82 0 0 255
-15.1219 -5.0946 114.176 0 0 255
-15.0136 -5.35596 199.138 0 0 255
-15.2476 -4.79104 178.27 0 0 255
-15.3825 -4.46552 466.01 0 0 255
-14.7924 -5.89008 551.085 0 0 255
-14.2702 -7.1507 448.262 0 0 255
-14.3514 -6.95468 460.852 0 0 255
-14.8236 -5.81469 308.02 0 0 255
-14.2653 -7.16248 585.787 0 0 255
-14.344 -6.97263 427.571 0 0 255
-14.7032 -6.10542 519.584 0 0 255
-15.2062 -4.89102 156.289 0 0 255
-15.2432 -4.80163 530.449 0 0 255
-14.5092 -6.57367 609.259 0 0 255
-14.9457 -5.52003 437.323 0 0 255
-14.8687 -5.70585 357.713 0 0 255
-14.6363 -6.26704 424.111 0 0 255
-15.2889 -4.69136 504.9 0 0 255
-14.6404 -6.25712 279.346 0 0 255
-14.9783 -5.44138 234.948 0 0 255
-14.9756 -5.44769 435.733 0 0 255
-15.4726 -4.24789 251.23 0 0 255
-14.8068 -5.85536 343.821 0 0 255
-15.2095 -4.88319 499.851 0 0 255
-15.1151 -5.1109 276.023 0 0 255
-14.9369 -5.54118 221.686 0 0 255
-15.4124 -4.39332 486.028 0 0 255
-15.0872 -5.1783 90.913 0 0 255
-15.3322 -4.58692 463.952 0 0 255
-15.1899 -4.93031 40.2971 0 0 255
-15.2493 -4.78711 99.5606 0 0 255
-15.2956 -4.67516 527.608 0 0 255
-14.5551 -6.46291 625.223 0 0 255
-15.3168 -4.62398 152.612 0 0 255
9.05374 -4.3175 633.066 0 0 255
9.70605 -3.33982 633.066 0 0 255
15.9423 0.188464 95.5085 0 0 255
15.8734 0.712141 530.346 0 0 255
15.5782 2.95393 619.069 0 0 255
15.8138 1.16429 393.873 0 0 255
15.73 1.8008 515.457 0 0 255
15.9006 0.505541 144.564 0 0 255
15.8714 0.726823 274.039 0 0 255
15.7471 1.67098 280.159 0 0 255
15.8028 1.24843 238.249 0 0 255
15.8153 1.1535 565.956 0 0 255
15.835 1.00379 145.281 0 0 255
15.5859 2.89566 492.784 0 0 255
15.9618 0.0407828 544.686 0 0 255
15.8169 1.14093 469.869 0 0 255
15.7424 1.70669 289.13 0 0 255
15.5722 2.99961 513.22 0 0 255
15.6603 2.33074 519.115 0 0 255
15.95 0.129892 347.268 0 0 255
15.5963 2.81657 552.377 0 0 255
15.9489 0.138331 129.181 0 0 255
15.8721 0.721477 600.597 0 0 255
15.9683 -0.00885476 -97.1994 0 0 255
15.8411 0.957026 549.076 0 0 255
15.9631 0.0303251 438.476 0 0 255
15.7135 1.92677 266.599 0 0 255
15.9702 -0.0233327 216.657 0 0 255
15.5379 3.25994 564.121 0 0 255
15.9349 0.24467 230.41 0 0 255
15.8635 0.787088 191.259 0 0 255
15.8393 0.970978 351.608 0 0 255
15.9618 0.0402873 36.8846 0 0 255
15.9676 -0.003779 468.884 0 0 255
15.6293 2.56575 583.276 0 0 255
15.7956 1.30257 503.218 0 0 255
15.964 0.0240079 -11.0085 0 0 255
15.5544 3.13479 507.913 0 0 255
15.5044 3.51451 538.035 0 0 255
15.8789 0.67044 13.5477 0 0 255
15.7791 -1.63441 13.2377 0 0 255
15.8577 -1.03712 424.859 0 0 255
15.9363 -0.440788 9.91245 0 0 255
15.8761 -0.898018 483.331 0 0 255
15.952 -0.321181 136.872 0 0 255
15.9529 -0.314647 456.379 0 0 255
15.8968 -0.740621 237.74 0 0 255
15.8874 -0.812044 149.872 0 0 255
15.8014 -1.46496 227.296 0 0 255
15.7421 -1.91531 -66.0795 0 0 255
15.9409 -0.405882 562.684 0 0 255
15.6919 -2.29706 -8.87209 0 0 255
15.7615 -1.76792 205.806 0 0 255
15.7752 -1.6642 16.1962 0 0 255
15.7163 -2.11178 29.9469 0 0 255
15.8882 -0.805784 402.612 0 0 255
15.5335 -3.50001 -48.8133 0 0 255
15.7711 -1.69497 143.463 0 0 255
15.554 -3.34452 14.4949 0 0 255
15.7201 -2.08303 -101.157 0 0 255
15.8477 -1.11355 275.478 0 0 255
15.6532 -2.59087 -118.315 0 0 255
15.6318 -2.75315 115.159 0 0 255
15.6188 -2.8522 11.4297 0 0 255
15.8826 -0.848606 -10.7299 0 0 255
15.9382 -0.426152 -119.362 0 0 255
15.7445 -1.89703 -94.4575 0 0 255
15.9706 -0.179801 62.2397 0 0 255
15.7366 -1.95768 206.459 0 0 255
15.9193 -0.569864 93.1078 0 0 255
15.8124 -1.38194 228.664 0 0 255
15.7892 -1.55809 -19.1322 0 0 255
15.8333 -1.22294 371.145 0 0 255
15.7857 -1.5841 28.3923 0 0 255
15.9793 -0.114148 190.63 0 0 255
15.6692 -2.46962 -120.28 0 0 255
15.7525 -1.83639 65.0902 0 0 255
15.6531 -2.59161 370.471 0 0 255
15.8372 -1.19346 599.062 0 0 255
15.6369 -2.71476 477.271 0 0 255
15.5047 -3.71874 435.333 0 0 255
15.7916 -1.53941 552.463 0 0 255
15.5433 -3.42548 360.698 0 0 255
15.5049 -3.7171 482.094 0 0 255
15.6208 -2.83728 434.264 0 0 255
15.7353 -1.96684 436.75 0 0 255
15.9088 -0.649714 571.55 0 0 255
15.6373 -2.71148 376.715 0 0 255
15.6852 -2.34742 399.672 0 0 255
15.4851 -3.86778 466.12 0 0 255
15.5229 -3.58065 117.124 0 0 255
15.5806 -3.14214 408.208 0 0 255
15.465 -4.02072 375.629 0 0 255
15.5741 -3.1916 223.659 0 0 255
15.7524 -1.83746 359.461 0 0 255
15.63 -2.7668 435.928 0 0 255
15.5755 -3.18136 451.058 0 0 255
15.4909 -3.82398 92.0704 0 0 255
15.4756 -3.94013 133.244 0 0 255
15.4937 -3.80216 613.205 0 0 255
15.7171 -2.1052 274.917 0 0 255
15.6355 -2.72534 195.881 0 0 255
15.7999 -1.47643 567.524 0 0 255
15.594 -3.04069 101.851 0 0 255
15.4719 -3.96818 156.61 0 0 255
15.5161 -3.63255 129.302 0 0 255
15.5676 -3.24091 576.504 0 0 255
15.5393 -3.45598 439.014 0 0 255
15.4554 -4.09306 60.652 0 0 255
15.5436 -3.42345 420.976 0 0 255
15.4529 -4.1125 68.5738 0 0 255
15.469 -3.99025 -39.1621 0 0 255
15.5373 -3.47153 475.776 0 0 255
15.7976 -1.49408 562.116 0 0 255
15.4643 -4.02557 307.905 0 0 255
14.0128 7.54901 455.832 0 0 255
15.2036 4.64413 525.569 0 0 255
14.3936 6.77895 108.662 0 0 255
14.2241 6.96969 616.315 0 0 255
14.4531 6.64783 79.2915 0 0 255
14.4567 6.66718 14.1755 0 0 255
14.8418 5.64359 232.318 0 0 255
15.0426 5.1174 328.863 0 0 255
14.2897 7.01516 142.368 0 0 255
14.7803 5.66136 536.192 0 0 255
14.7521 5.81577 335.515 0 0 255
14.9104 5.38062 458.865 0 0 255
14.6974 6.04427 111.391 0 0 255
14.5766 6.2506 309.552 0 0 255
15.2088 4.65296 475.758 0 0 255
14.6616 5.90776 629.991 0 0 255
14.6045 6.32128 -10.991 0 0 255
14.57 6.34716 122.131 0 0 255
14.9105 5.4411 317.931 0 0 255
14.4689 6.59171 121.355 0 0 255
15.0323 5.10978 404.413 0 0 255
14.4381 6.50287 500.655 0 0 255
15.0489 5.053 443.034 0 0 255
14.7812 5.62368 619.114 0 0 255
14.1599 7.13846 584.632 0 0 255
15.2514 4.52301 538.63 0 0 255
14.5307 6.27397 513.009 0 0 255
14.4658 6.65311 -4.32962 0 0 255
14.4711 6.3948 566.771 0 0 255
14.3105 6.85487 398.29 0 0 255
14.3895 6.82654 20.876 0 0 255
14.3154 6.75131 612.031 0 0 255
14.2383 6.97032 535.398 0 0 255
14.3097 6.77638 585.692 0 0 255
14.8167 5.5443 604.064 0 0 255
14.0836 7.34636 529.547 0 0 255
14.6992 5.94308 336.678 0 0 255
15.5753 3.07383 395.28 0 0 255
15.736 2.1154 57.7581 0 0 255
15.5849 3.07465 350.547 0 0 255
15.6107 2.89959 305.132 0 0 255
15.8375 1.4099 -112.114 0 0 255
15.6355 2.84134 214.461 0 0 255
15.6423 2.65849 261.539 0 0 255
15.5894 3.10384 316.77 0 0 255
15.4861 3.74952 520.922 0 0 255
15.5289 3.51947 420.211 0 0 255
15.6221 3.08499 172.274 0 0 255
15.7457 2.04743 41.5885 0 0 255
15.8316 1.11699 41.3436 0 0 255
15.5707 3.14733 385.472 0 0 255
15.8184 1.65621 -129.091 0 0 255
15.6438 2.62162 270.212 0 0 255
15.5457 3.2754 446.732 0 0 255
15.7741 1.84993 -5.90884 0 0 255
15.5867 3.135 315.932 0 0 255
15.7751 1.89409 -29.6642 0 0 255
15.727 2.35899 -5.10761 0 0 255
15.8169 1.20308 72.7224 0 0 255
15.6413 2.89381 164.867 0 0 255
15.9182 0.492352 -94.3518 0 0 255
15.8442 0.974975 43.6619 0 0 255
15.4802 3.78958 531.363 0 0 255
15.2451 4.45649 233.616 0 0 255
15.4495 3.81013 229.155 0 0 255
15.5819 3.25781 -66.934 0 0 255
15.2677 4.36762 194.835 0 0 255
14.8834 5.44439 -101.778 0 0 255
15.612 3.14186 -113.48 0 0 255
15.5568 3.38092 29.4874 0 0 255
15.0044 5.06601 -94.8274 0 0 255
14.9052 5.40033 -47.4518 0 0 255
15.2391 4.5368 368.514 0 0 255
14.9437 5.39694 211.964 0 0 255
15.42 4.08054 619.345 0 0 255
15.2529 4.30931 -36.0333 0 0 255
15.43 3.75963 -16.5665 0 0 255
14.8811 5.48093 -37.6028 0 0 255
15.4754 3.77624 334.56 0 0 255
14.8212 5.70095 30.9593 0 0 255
15.6393 3.10072 -14.2474 0 0 255
14.9811 5.14336 -86.1112 0 0 255
15.5129 3.44706 -129.479 0 0 255
15.6709 2.9536 -119.059 0 0 255
15.3145 4.14723 34.8179 0 0 255
15.3856 3.88145 -56.489 0 0 255
15.0403 5.06165 144.548 0 0 255
15.514 3.63265 285.886 0 0 255
15.0522 5.05904 221.338 0 0 255
15.4149 3.95993 318.589 0 0 255
15.1816 4.56424 30.0401 0 0 255
14.8646 5.53307 -36.9492 0 0 255
15.467 3.62647 -53.2378 0 0 255
14.8781 5.51872 24.6599 0 0 255
14.7255 5.93549 -116.814 0 0 255
15.2763 4.20765 -96.9333 0 0 255
15.099 4.85249 91.1969 0 0 255
15.5253 3.50721 88.8946 0 0 255
15.203 4.43511 -105.049 0 0 255
-15.0936 -5.16289 -11.1842 0 0 255
-14.0285 -7.73434 38.8816 0 0 255
-14.2466 -7.20769 346.861 0 0 255
-14.6493 -6.23547 -93.1924 0 0 255
-14.9303 -5.55707 107.873 0 0 255
-14.1013 -7.55855 343.792 0 0 255
-15.2266 -4.84174 -61.1044 0 0 255
-15.0684 -5.22381 27.5224 0 0 255
-14.0615 -7.65465 347.688 0 0 255
-15.012 -5.35992 29.3491 0 0 255
-14.1983 -7.32441 392.12 0 0 255
-14.6819 -6.15673 -113.765 0 0 255
-14.421 -6.78682 305.734 0 0 255
-13.954 -7.91405 111.854 0 0 255
-14.1801 -7.36823 249.213 0 0 255
-13.9558 -7.90972 549.541 0 0 255
-14.2631 -7.16792 225.816 0 0 255
-14.0145 -7.76819 300.192 0 0 255
-14.3937 -6.8525 -51.5104 0 0 255
-14.4694 -6.66974 197.634 0 0 255
-14.4598 -6.69294 264.07 0 0 255
-14.0013 -7.79985 -55.618 0 0 255
-14.0893 -7.58742 153.7 0 0 255
-14.2691 -7.15354 201.655 0 0 255
-13.9481 -7.92827 -37.1504 0 0 255
-14.2279 -7.25297 115.327 0 0 255
-14.0321 -7.72552 365.904 0 0 255
-14.6066 -6.33864 8.23883 0 0 255
-14.2921 -7.09799 427.849 0 0 255
-14.0111 -7.77631 61.5172 0 0 255
-15.3103 -4.63973 -125.432 0 0 255
-14.2524 -7.19378 286.517 0 0 255
-14.1271 -7.49632 -82.2445 0 0 255
-15.0732 -5.21224 -60.8642 0 0 255
-14.8864 -5.66311 118.275 0 0 255
-14.6246 -6.29519 265.438 0 0 255
-13.8821 -8.08774 101.245 0 0 255
-9.43745 -6.37878 -129.572 0 0 255
-9.51675 0.478425 -162.136 0 0 255
-9.41238 1.07029 -169.271 0 0 255
-9.20414 2.25131 -157.254 0 0 255
-9.2619 1.9237 -155.402 0 0 255
-9.43307 0.952973 -149.687 0 0 255
-9.3143 -1.83288 -140.34 0 0 255
-9.4193 -1.23742 -147.557 0 0 255
-9.36748 -1.53126 -139.873 0 0 255
-8.22438 -4.79985 -130.362 0 0 255
-8.82045 -3.76743 -163.836 0 0 255
-9.38277 -1.44459 -179.309 0 0 255
-9.13824 -2.83138 -170.142 0 0 255
-9.14343 -2.80192 -195.865 0 0 255
-12.6224 9.59219 12.3093 0 0 255
-13.7687 7.9955 195.069 0 0 255
-13.425 8.5056 402.685 0 0 255
-12.4386 9.83715 -109.706 0 0 255
-13.5272 8.31537 18.7868 0 0 255
-12.6921 9.47917 -110.113 0 0 255
-12.628 9.57412 -73.2156 0 0 255
-13.5839 8.23218 -6.85443 0 0 255
-13.7676 8.00884 293.993 0 0 255
-13.4489 8.47232 406.644 0 0 255
-13.6709 8.10568 -37.1624 0 0 255
-12.4753 9.80986 95.4322 0 0 255
-13.8302 7.89002 39.4422 0 0 255
-13.4317 8.46927 177.574 0 0 255
-13.8982 7.81984 255.905 0 0 255
-12.7882 9.34969 -58.176 0 0 255
-13.9666 7.70447 98.301 0 0 255
-13.0537 9.01614 286.972 0 0 255
-13.9135 7.77128 30.8837 0 0 255
-12.5906 9.63205 -29.7808 0 0 255
-13.2204 8.73474 -96.4048 0 0 255
-13.3484 8.56352 -17.2492 0 0 255
-13.147 8.83744 -104.79 0 0 255
-13.2969 8.63494 -28.0606 0 0 255
-12.5419 9.70887 37.3247 0 0 255
-14.0048 7.63178 -57.5255 0 0 255
-13.5906 8.24082 143.825 0 0 255
-12.7587 9.41313 124.144 0 0 255
-13.0462 9.01418 182.682 0 0 255
-13.2722 8.70157 237.356 0 0 255
-12.3618 9.94487 -115.872 0 0 255
-13.5837 8.28175 404.847 0 0 255
-13.718 8.06121 146.298 0 0 255
-13.4939 8.41386 448.08 0 0 255
-13.7662 7.99945 199.216 0 0 255
-7.42755 8.12885 -129.572 0 0 255
-8.05446 4.88782 -179.621 0 0 255
-8.70426 3.76234 -152.001 0 0 255
-8.08765 4.83034 -142.864 0 0 255
-8.00997 4.9649 -167.411 0 0 255
-8.63571 3.88107 -139.117 0 0 255
-7.13774 6.26527 -171.027 0 0 255
-5.98165 7.23535 -182.119 0 0 255
-5.41831 7.70804 -190.3 0 0 255
-5.81604 7.37431 -162.957 0 0 255
-5.15626 7.92793 -160.148 0 0 255
-12.9358 9.15279 451.434 0 0 255
-11.9803 10.4067 400.201 0 0 255
-11.8061 10.6482 314.907 0 0 255
-12.6105 9.60397 291.396 0 0 255
-11.77 10.6922 333.376 0 0 255
-11.8425 10.6532 8.06126 0 0 255
-11.7269 10.7326 425.804 0 0 255
-11.9585 10.4149 518.584 0 0 255
-13.0614 8.96732 578.963 0 0 255
-11.6281 10.8557 458.621 0 0 255
-12.6241 9.52951 623.572 0 0 255
-11.953 10.5204 -57.3806 0 0 255
-12.2657 10.0436 348.438 0 0 255
-12.2598 10.0931 103.235 0 0 255
-12.062 10.3365 187.134 0 0 255
-12.9291 9.17348 380.929 0 0 255
-11.8679 10.5921 172.323 0 0 255
-12.4729 9.80286 176.731 0 0 255
-11.906 10.5852 -78.5851 0 0 255
-11.7937 10.6538 377.139 0 0 255
-12.8571 9.22755 614.411 0 0 255
-11.9584 10.4903 77.608 0 0 255
-12.6319 9.53822 513.269 0 0 255
-12.3232 9.97678 301.026 0 0 255
-13.1069 8.91558 534.589 0 0 255
-11.7831 10.6448 510.755 0 0 255
-12.0818 10.2745 399.731 0 0 255
-11.6788 10.8324 207.896 0 0 255
-12.2451 10.0471 485.244 0 0 255
-12.0924 10.3124 96.83 0 0 255
-12.6421 9.51413 576.933 0 0 255
-13.1381 8.89283 429.701 0 0 255
-11.7013 10.7955 252.849 0 0 255
-12.822 9.29674 476.988 0 0 255
-11.6461 10.8341 447.796 0 0 255
-12.4104 9.88804 154.622 0 0 255
-11.5108 11.0145 424.077 0 0 255
-12.7763 9.36489 426.444 0 0 255
-5.2144 8.06844 633.066 0 0 255
-3.2478 9.31657 633.066 0 0 255
12.5837 9.64876 219.326 0 0 255
13.2167 8.79346 325.188 0 0 255
12.3198 9.98242 255.207 0 0 255
12.2532 9.99129 527.411 0 0 255
12.2259 10.1049 254.76 0 0 255
11.5956 10.8469 532.159 0 0 255
12.3255 9.94542 358.458 0 0 255
11.4877 10.9933 512.061 0 0 255
12.5009 9.68442 471.432 0 0 255
11.7309 10.6649 551.995 0 0 255
12.0061 10.3051 556.141 0 0 255
13.7265 8.04437 621.409 0 0 255
12.421 9.95337 -104.362 0 0 255
12.8751 9.16619 578.33 0 0 255
12.4692 9.8517 31.5996 0 0 255
12.6342 9.52634 417.015 0 0 255
12.2445 10.1471 22.7487 0 0 255
12.3356 10.031 13.481 0 0 255
12.5273 9.6785 372.308 0 0 255
12.2544 9.96627 609.194 0 0 255
13.3659 8.5151 618.697 0 0 255
13.1935 8.77852 483.17 0 0 255
12.1027 10.1843 538.256 0 0 255
11.3964 11.0838 611.609 0 0 255
12.7151 9.49666 152.497 0 0 255
12.4075 9.84961 320.001 0 0 255
12.3533 9.86747 504.016 0 0 255
12.727 9.39419 456.05 0 0 255
13.0768 8.91754 528.969 0 0 255
12.4644 9.77395 324.956 0 0 255
12.4861 9.84473 -21.1493 0 0 255
12.4147 9.83603 334.261 0 0 255
12.4741 9.79207 217.367 0 0 255
13.3759 8.5614 411.086 0 0 255
12.2331 10.061 375.517 0 0 255
12.6742 9.56039 116.048 0 0 255
13.2516 8.72239 414.85 0 0 255
13.6801 8.02583 194.153 0 0 255
13.0796 8.9758 118.232 0 0 255
13.6838 7.97646 41.7266 0 0 255
13.2411 8.70691 91.5586 0 0 255
14.214 7.14523 135.059 0 0 255
14.3737 6.85419 19.9831 0 0 255
14.1098 7.2478 -96.9051 0 0 255
12.966 9.13866 44.4997 0 0 255
13.0268 9.04197 50.4189 0 0 255
13.8236 7.90834 596.694 0 0 255
13.0877 8.9163 -45.2226 0 0 255
12.573 9.7285 -117.035 0 0 255
13.1989 8.79098 147.07 0 0 255
13.8451 7.77151 238.342 0 0 255
13.9346 7.52453 -120.345 0 0 255
13.9108 7.64328 161.486 0 0 255
13.1317 8.82892 -101.991 0 0 255
13.113 8.86282 -88.8753 0 0 255
12.5807 9.72372 -90.432 0 0 255
13.578 8.20374 238.782 0 0 255
13.4439 8.45401 355.701 0 0 255
13.6846 7.93093 -114.15 0 0 255
13.3891 8.52068 278.486 0 0 255
13.7365 8.01952 492.01 0 0 255
14.1129 7.25151 -66.4673 0 0 255
13.6791 8.0319 209.529 0 0 255
13.0497 9.02073 105.686 0 0 255
13.9199 7.56619 -57.6106 0 0 255
14.3301 6.93461 54.9832 0 0 255
13.6935 7.95906 35.5376 0 0 255
14.4197 6.74103 -115.976 0 0 255
12.6778 9.55702 -123.809 0 0 255
13.4469 8.33947 -29.7548 0 0 255
14.1632 7.22388 122.692 0 0 255
12.9993 9.07915 24.867 0 0 255
-12.721 -9.60807 522.836 0 0 255
-12.9592 -9.29758 364.043 0 0 255
-13.3615 -8.77323 527.759 0 0 255
-13.6464 -8.40205 508.505 0 0 255
-12.9786 -9.27235 604.199 0 0 255
-11.9089 -10.6664 527.553 0 0 255
-12.4362 -9.97913 406.921 0 0 255
-12.9892 -9.25852 612.581 0 0 255
-13.0161 -9.22346 228.931 0 0 255
-12.8457 -9.44553 380.687 0 0 255
-13.3001 -8.85326 186.097 0 0 255
-13.2726 -8.88918 390.913 0 0 255
-11.7815 -10.8324 503.843 0 0 255
-13.8162 -8.18069 111.174 0 0 255
-12.8123 -9.48902 226.918 0 0 255
-12.4828 -9.91841 520.407 0 0 255
-13.8635 -8.11901 237.854 0 0 255
-13.2807 -8.87864 311.916 0 0 255
-12.2107 -10.273 548.687 0 0 255
-13.8565 -8.12826 405.26 0 0 255
-12.8276 -9.46906 450.91 0 0 255
-12.2099 -10.2741 460.547 0 0 255
-13.7938 -8.20995 195.763 0 0 255
-12.9184 -9.3508 380.988 0 0 255
-13.8276 -8.16591 440.111 0 0 255
-13.4469 -8.66201 113.602 0 0 255
-13.0788 -9.14169 470.842 0 0 255
-13.5511 -8.52619 498.682 0 0 255
-13.2525 -8.91535 287.699 0 0 255
-11.5866 -11.0863 611.194 0 0 255
-11.96 -10.5997 517.647 0 0 255
-12.8127 -9.48846 526.321 0 0 255
-12.704 -9.63011 268.911 0 0 255
-13.8732 -8.10644 562.717 0 0 255
-12.6487 -9.70225 412.713 0 0 255
-13.3923 -8.73314 84.0928 0 0 255
-13.2908 -8.86544 174.587 0 0 255
-12.9321 -9.33284 561.369 0 0 255
-1.46886 -9.53929 633.066 0 0 255
4.61695 -6.61876 633.066 0 0 255
14.5166 -6.46276 13.7757 0 0 255
15.1369 -4.9652 -28.3915 0 0 255
14.707 -6.00314 139.014 0 0 255
15.3406 -4.47346 583.089 0 0 255
15.2721 -4.63888 542.277 0 0 255
15.4149 -4.294 -59.7748 0 0 255
14.3244 -6.92671 -21.4504 0 0 255
14.5977 -6.26705 92.4159 0 0 255
15.0143 -5.26121 371.275 0 0 255
15.2374 -4.72254 243.329 0 0 255
15.0122 -5.2663 -48.3086 0 0 255
14.658 -6.12143 125.708 0 0 255
15.0907 -5.07678 -30.782 0 0 255
15.2162 -4.7737 40.8293 0 0 255
14.7545 -5.88844 -69.4781 0 0 255
15.3969 -4.33752 292.825 0 0 255
15.3339 -4.48962 406.525 0 0 255
14.5952 -6.27291 175.621 0 0 255
15.1289 -4.98448 133.584 0 0 255
15.4233 -4.27375 486.07 0 0 255
14.7064 -6.00441 -91.1548 0 0 255
15.1232 -4.99819 448.272 0 0 255
15.1787 -4.8642 400.029 0 0 255
14.2477 -7.11196 -5.37153 0 0 255
14.4795 -6.55219 149.354 0 0 255
15.0922 -5.07317 306.446 0 0 255
14.9593 -5.39391 100.51 0 0 255
14.8421 -5.67682 -48.695 0 0 255
14.8726 -5.60327 -14.5276 0 0 255
15.3782 -4.38274 526.165 0 0 255
13.9855 -7.74485 -122.384 0 0 255
15.0055 -5.28233 254.186 0 0 255
14.6663 -6.10144 -19.8271 0 0 255
14.3403 -6.88829 -16.4213 0 0 255
14.2597 -7.08294 8.50284 0 0 255
15.4146 -4.29473 580.432 0 0 255
14.1151 -7.43197 -128.756 0 0 255
13.9652 -7.79383 227.843 0 0 255
13.9113 -7.92398 408.57 0 0 255
15.067 -5.13404 572.03 0 0 255
13.9813 -7.75512 0.950195 0 0 255
14.2846 -7.02289 541.377 0 0 255
14.1132 -7.43669 418.367 0 0 255
14.322 -6.93257 169.94 0 0 255
14.2391 -7.13258 396.564 0 0 255
13.8429 -8.08915 224.666 0 0 255
14.237 -7.1377 208.91 0 0 255
14.8704 -5.60857 372.164 0 0 255
14.2108 -7.20098 156.529 0 0 255
14.1515 -7.34411 530.574 0 0 255
14.0958 -7.4786 270.223 0 0 255
13.8845 -7.98885 208.755 0 0 255
14.1704 -7.29854 475.923 0 0 255
14.9663 -5.37701 451.395 0 0 255
14.9696 -5.36922 588.352 0 0 255
14.0345 -7.62654 76.3143 0 0 255
14.9306 -5.46319 502.602 0 0 255
14.0063 -7.69477 51.7323 0 0 255
14.2466 -7.11464 490.963 0 0 255
14.1401 -7.37158 537.289 0 0 255
14.6728 -6.08563 362.649 0 0 255
14.8226 -5.72401 524.471 0 0 255
13.8818 -7.9952 550.076 0 0 255
14.245 -7.1185 462.186 0 0 255
14.104 -7.4588 529.154 0 0 255
14.9221 -5.48389 473.305 0 0 255
14.5026 -6.49665 305.236 0 0 255
13.8889 -7.9782 216.884 0 0 255
14.2914 -7.00639 450.797 0 0 255
14.042 -7.60848 -0.274356 0 0 255
14.2594 -7.08369 177.714 0 0 255
14.1531 -7.3404 266.354 0 0 255
14.709 -5.9982 465.886 0 0 255
14.5806 -6.30832 332.187 0 0 255
14.3351 -6.90082 360.614 0 0 255
15.6918 1.48514 -129.572 0 0 255
9.10463 9.73205 -129.572 0 0 255
-11.5349 -11.1537 91.3805 0 0 255
-11.6691 -10.9789 320.285 0 0 255
-13.0117 -9.22922 59.4565 0 0 255
-11.4785 -11.2272 281.771 0 0 255
-13.6487 -8.39901 -129.057 0 0 255
-11.6937 -10.9468 -83.2065 0 0 255
-12.55 -9.83084 21.1597 0 0 255
-11.5004 -11.1988 292.947 0 0 255
-12.9552 -9.30284 34.3781 0 0 255
-11.4575 -11.2546 166.85 0 0 255
-11.7462 -10.8783 109.564 0 0 255
-12.2206 -10.2602 165.247 0 0 255
-11.7424 -10.8833 292.402 0 0 255
-11.813 -10.7914 41.9095 0 0 255
-11.9232 -10.6477 89.5873 0 0 255
-11.7566 -10.8649 216.593 0 0 255
-11.5173 -11.1767 195.393 0 0 255
-11.8249 -10.7758 10.1636 0 0 255
-13.3627 -8.77175 18.8863 0 0 255
-12.0734 -10.4519 29.7972 0 0 255
-13.6137 -8.44464 -80.9501 0 0 255
-11.6413 -11.0151 29.9913 0 0 255
-11.9666 -10.5912 51.085 0 0 255
-13.5884 -8.47763 -64.4411 0 0 255
-12.1356 -10.3709 255.697 0 0 255
-12.8361 -9.45801 26.6679 0 0 255
-11.4155 -11.3094 482.223 0 0 255
-12.635 -9.72008 -20.8952 0 0 255
-11.9974 -10.551 433.023 0 0 255
-13.3238 -8.82239 -77.9407 0 0 255
-11.927 -10.6428 34.9314 0 0 255
-12.6441 -9.70822 -72.8258 0 0 255
-11.9869 -10.5647 130.538 0 0 255
-13.3809 -8.74805 -120.251 0 0 255
-11.9101 -10.6648 52.0167 0 0 255
-12.6773 -9.66501 87.1818 0 0 255
-11.5218 -11.1708 186.425 0 0 255
-12.3363 -10.1094 84.0971 0 0 255
-8.1072 -10.5461 -129.572 0 0 255
-6.22177 -7.2402 -133.609 0 0 255
-6.8162 -6.74141 -157.516 0 0 255
-7.94792 -5.2787 -167.545 0 0 255
-8.64951 -4.06351 -182.966 0 0 255
-7.63897 -5.81381 -163.017 0 0 255
-8.42271 1.30079 -197.241 0 0 255
-3.57081 -5.00183 -197.241 0 0 255
-9.14029 12.9927 -118.276 0 0 255
-10.7689 11.6112 -15.387 0 0 255
-11.1683 11.2848 107.728 0 0 255
-9.25835 12.9029 -28.8118 0 0 255
-11.3249 11.2112 583.661 0 0 255
-10.5867 11.7875 144.174 0 0 255
-10.7145 11.6866 211.42 0 0 255
-11.4684 11.0369 178.472 0 0 255
-11.0588 11.3989 267.5 0 0 255
-9.79109 12.4395 -86.2405 0 0 255
-10.1278 12.1592 -23.1685 0 0 255
-10.9063 11.5057 80.1903 0 0 255
-10.6276 11.773 306.183 0 0 255
-11.3456 11.1794 472.957 0 0 255
-11.1511 11.3328 369.164 0 0 255
-10.099 12.2024 123.469 0 0 255
-9.48548 12.7187 52.075 0 0 255
-9.59632 12.6027 -114.057 0 0 255
-9.67909 12.5417 -36.0162 0 0 255
-10.0772 12.2366 245.239 0 0 255
-9.79002 12.4589 59.8536 0 0 255
-10.5919 11.7797 118.192 0 0 255
-10.9838 11.4469 140.215 0 0 255
-10.708 11.6594 -46.0383 0 0 255
-9.75198 12.4755 -66.4889 0 0 255
-11.3993 11.1172 344.576 0 0 255
-11.0035 11.428 124.093 0 0 255
-11.3745 11.1008 49.1636 0 0 255
-10.2376 12.0808 100.399 0 0 255
-10.4147 11.9264 78.6668 0 0 255
-11.1301 11.295 -69.3426 0 0 255
-10.6032 11.7793 191.157 0 0 255
-10.0172 12.2552 -12.5852 0 0 255
-11.5998 10.8926 -70.6962 0 0 255
-10.6745 11.7146 162.208 0 0 255
-2.10445 9.47452 -129.572 0 0 255
-4.48716 8.33156 -183.536 0 0 255
-3.31913 8.75669 -172.204 0 0 255
-2.74995 8.96385 -189.712 0 0 255
-4.80613 8.21546 -129.625 0 0 255
-3.32502 8.75454 -142.157 0 0 255
-1.81518 9.30408 -193.004 0 0 255
-8.59383 13.3275 539.959 0 0 255
-10.202 12.0955 527.954 0 0 255
-9.23549 12.9004 137.566 0 0 255
-8.84601 13.2104 68.8014 0 0 255
-9.25603 12.8593 293.98 0 0 255
-8.61769 13.3094 538.398 0 0 255
-10.6098 11.7879 495.217 0 0 255
-9.56696 12.6269 255.907 0 0 255
-9.24389 12.8329 513.632 0 0 255
-8.97799 13.1139 39.2438 0 0 255
-8.73709 13.2306 459.28 0 0 255
-10.0662 12.2197 404.466 0 0 255
-9.9277 12.3573 211.135 0 0 255
-9.40561 12.7672 153.726 0 0 255
-9.60017 12.5826 371.726 0 0 255
-10.0426 12.2177 528.14 0 0 255
-10.9638 11.4975 610.233 0 0 255
-10.1549 12.1317 527.436 0 0 255
-8.87039 13.1525 310.57 0 0 255
-8.76681 13.187 587.957 0 0 255
-9.98415 12.26 544.146 0 0 255
-9.2502 12.8593 321.048 0 0 255
-8.63115 13.3585 171.997 0 0 255
-9.17106 12.9086 391.483 0 0 255
-9.41949 12.7118 429.741 0 0 255
-8.81055 13.1705 482.759 0 0 255
-9.23881 12.8859 211.112 0 0 255
-8.61398 13.304 589.745 0 0 255
-9.83375 12.3951 422.35 0 0 255
-8.41358 13.4863 413.852 0 0 255
-10.4462 11.9016 567.961 0 0 255
-8.58989 13.3708 291.307 0 0 255
-10.7799 11.647 559.04 0 0 255
-9.28348 12.8278 357.917 0 0 255
-9.07258 13.0298 110.364 0 0 255
-10.9141 11.5496 524.751 0 0 255
-9.81327 12.3898 552.058 0 0 255
5.68599 12.3866 633.066 0 0 255
7.08544 13.7345 633.066 0 0 255
9.16254 12.9119 342.731 0 0 255
9.53582 12.7184 -69.3455 0 0 255
10.757 11.6474 524.534 0 0 255
9.11167 12.8912 607.311 0 0 255
9.92165 12.3511 246.637 0 0 255
10.5847 11.8282 309.084 0 0 255
10.5802 11.8201 360.412 0 0 255
11.0322 11.4271 564.97 0 0 255
9.15045 12.9638 153.902 0 0 255
9.70303 12.4816 411.45 0 0 255
9.75253 12.4682 302.807 0 0 255
8.75469 13.1967 467.558 0 0 255
10.2949 12.0453 332.417 0 0 255
8.63383 13.2892 468.613 0 0 255
8.88392 13.1511 229.783 0 0 255
10.2986 12.0484 306.043 0 0 255
10.0845 12.1801 450.426 0 0 255
9.73385 12.5585 -34.0584 0 0 255
8.85967 13.0986 545.19 0 0 255
9.58887 12.6855 -103.949 0 0 255
8.98162 13.0612 296.401 0 0 255
9.64085 12.6087 59.8383 0 0 255
9.16502 12.8622 554.542 0 0 255
10.2705 12.0175 538.733 0 0 255
8.73556 13.1818 598.778 0 0 255
9.2961 12.8738 57.1369 0 0 255
9.52207 12.6723 181.804 0 0 255
9.38849 12.7266 395.433 0 0 255
9.27177 12.8344 314.792 0 0 255
9.92853 12.3478 237.495 0 0 255
8.65168 13.3064 331.687 0 0 255
9.2292 12.9206 77.0858 0 0 255
10.0324 12.2532 303.795 0 0 255
9.37073 12.8131 72.5383 0 0 255
9.09681 12.9486 403.698 0 0 255
10.6537 11.7656 351.554 0 0 255
9.64834 12.6351 -82.9549 0 0 255
11.8384 10.5164 -125.712 0 0 255
11.4878 10.8807 -16.384 0 0 255
10.3454 11.9945 4.17913 0 0 255
11.4344 10.9293 -31.3626 0 0 255
11.0213 11.4031 301.055 0 0 255
10.8865 11.4541 -64.375 0 0 255
10.0088 12.3106 -45.419 0 0 255
10.5826 11.759 -20.136 0 0 255
11.7361 10.6734 137.703 0 0 255
11.4386 11.006 338.233 0 0 255
12.0622 10.3093 -78.6856 0 0 255
10.434 11.9252 80.5353 0 0 255
9.78327 12.512 -125.812 0 0 255
11.9017 10.4693 -60.1132 0 0 255
11.5598 10.811 -15.8345 0 0 255
10.8656 11.5543 301.006 0 0 255
9.83778 12.4714 -69.6021 0 0 255
11.633 10.7358 -34.7046 0 0 255
11.1536 11.2954 395.82 0 0 255
11.0489 11.4131 469.435 0 0 255
11.6358 10.7179 -104.148 0 0 255
11.4793 11.0039 509.228 0 0 255
10.3435 12.0107 69.6051 0 0 255
11.6916 10.7522 300.845 0 0 255
11.1756 11.2673 364.811 0 0 255
11.5163 10.8907 155.835 0 0 255
11.2975 11.1576 404.657 0 0 255
10.9473 11.4079 -5.75905 0 0 255
11.2167 11.2494 465.662 0 0 255
11.8351 10.5408 -28.8537 0 0 255
11.0652 11.2978 14.1827 0 0 255
12.0848 10.2993 -24.0986 0 0 255
10.7908 11.6383 352.462 0 0 255
11.3752 11.0995 483.831 0 0 255
11.3929 11.0631 396.445 0 0 255
8.48335 10.2526 -129.572 0 0 255
-10.1228 -12.3455 415.849 0 0 255
-11.1221 -11.5787 82.9503 0 0 255
-11.0149 -11.661 129.854 0 0 255
-10.6882 -11.9117 254.384 0 0 255
-9.9516 -12.4769 524.155 0 0 255
-8.93568 -13.2564 504.926 0 0 255
-11.3124 -11.4327 -56.1739 0 0 255
-9.91252 -12.5069 233.841 0 0 255
-10.8919 -11.7553 116.527 0 0 255
-10.8699 -11.7722 327.105 0 0 255
-10.4571 -12.089 284.5 0 0 255
-10.2506 -12.2474 259.376 0 0 255
-10.1988 -12.2872 482.279 0 0 255
-11.299 -11.443 -30.792 0 0 255
-9.32653 -12.9565 630.927 0 0 255
-10.0768 -12.3808 319.204 0 0 255
-11.1199 -11.5804 444.043 0 0 255
-10.9189 -11.7347 485.284 0 0 255
-10.585 -11.9908 517.092 0 0 255
-9.08805 -13.1395 533.421 0 0 255
-9.56894 -12.7705 579.193 0 0 255
-10.8599 -11.7799 250.1 0 0 255
-10.7788 -11.8422 571.108 0 0 255
-9.84209 -12.5609 435.76 0 0 255
-11.2534 -11.4779 281.408 0 0 255
-11.1626 -11.5476 238.198 0 0 255
-8.41631 -13.6549 542.188 0 0 255
-9.98353 -12.4524 432.793 0 0 255
-8.53428 -13.5644 583.71 0 0 255
-8.74288 -13.4044 536.247 0 0 255
-9.98841 -12.4486 301.85 0 0 255
-9.50439 -12.82 576.564 0 0 255
-10.8355 -11.7986 13.2399 0 0 255
-10.3228 -12.192 593.303 0 0 255
-9.93959 -12.4861 446.108 0 0 255
-9.82941 -12.5706 292.747 0 0 255
-10.8866 -11.7595 618.337 0 0 255
-0.777385 -12.8598 633.066 0 0 255
-3.59109 -10.6891 633.066 0 0 255
13.7299 -8.2429 89.2869 0 0 255
12.4261 -9.94205 -35.0639 0 0 255
13.4358 -8.62619 -27.9508 0 0 255
12.8696 -9.36405 331.369 0 0 255
11.7063 -10.8801 -96.9009 0 0 255
13.3431 -8.74703 469.728 0 0 255
13.5466 -8.48178 380.425 0 0 255
12.8246 -9.42275 123.235 0 0 255
11.9381 -10.578 14.253 0 0 255
13.8067 -8.14283 398.006 0 0 255
13.663 -8.3301 364.037 0 0 255
11.9177 -10.6046 -31.4076 0 0 255
13.0193 -9.16892 350.229 0 0 255
13.5784 -8.44035 293.667 0 0 255
11.8752 -10.66 -78.6134 0 0 255
12.2316 -10.1955 13.7647 0 0 255
13.8168 -8.12964 9.03435 0 0 255
13.6641 -8.32862 342.204 0 0 255
13.7834 -8.17317 330.794 0 0 255
13.3065 -8.79464 260.72 0 0 255
12.2938 -10.1144 27.4732 0 0 255
13.2389 -8.88284 382.417 0 0 255
12.953 -9.25535 198.366 0 0 255
13.0235 -9.16346 54.1305 0 0 255
12.9397 -9.27268 318.75 0 0 255
13.1973 -8.93702 396.401 0 0 255
12.9135 -9.3068 221.572 0 0 255
13.4309 -8.63255 -85.0692 0 0 255
13.5602 -8.46411 271.185 0 0 255
13.3917 -8.68362 352.351 0 0 255
12.6731 -9.62019 -122.936 0 0 255
13.4144 -8.65402 -99.2822 0 0 255
12.7647 -9.50079 280.363 0 0 255
13.5822 -8.43536 74.0622 0 0 255
13.4091 -8.66095 218.246 0 0 255
13.6202 -8.3859 439.504 0 0 255
12.5496 -9.78104 -61.6333 0 0 255
11.4771 -11.1788 356.326 0 0 255
13.2907 -8.81525 561.04 0 0 255
11.7352 -10.8424 47.9903 0 0 255
13.1612 -8.98401 466.63 0 0 255
11.7053 -10.8814 355.743 0 0 255
11.7718 -10.7947 67.7841 0 0 255
11.4244 -11.2475 241.845 0 0 255
12.0409 -10.4441 463.144 0 0 255
11.8686 -10.6686 310.451 0 0 255
12.8045 -9.44885 407.543 0 0 255
13.2461 -8.87345 511.062 0 0 255
11.3409 -11.3563 449.503 0 0 255
11.6994 -10.8891 208.193 0 0 255
12.1885 -10.2517 191.136 0 0 255
12.8221 -9.426 620.391 0 0 255
13.0735 -9.09833 533.377 0 0 255
11.8419 -10.7033 207.988 0 0 255
12.0688 -10.4077 422.243 0 0 255
12.1596 -10.2893 242.343 0 0 255
13.1244 -9.03198 625.712 0 0 255
12.0111 -10.4829 605.662 0 0 255
12.2894 -10.1202 361.495 0 0 255
12.5079 -9.83543 632.834 0 0 255
12.3029 -10.1026 193.212 0 0 255
11.8753 -10.6598 55.1144 0 0 255
12.536 -9.79879 442.841 0 0 255
12.016 -10.4765 571.515 0 0 255
11.2954 -11.4156 -118.018 0 0 255
12.0121 -10.4816 183.111 0 0 255
12.6417 -9.66111 314.725 0 0 255
13.0378 -9.14481 631.035 0 0 255
11.4508 -11.213 577.974 0 0 255
11.9684 -10.5385 466.297 0 0 255
12.2808 -10.1314 585.318 0 0 255
13.0003 -9.19369 385.804 0 0 255
11.5986 -11.0204 310.964 0 0 255
12.1334 -10.3235 136.784 0 0 255
12.6719 -9.62175 520.33 0 0 255
4.19993 -9.82111 -129.572 0 0 255
9.22081 1.93787 -139.884 0 0 255
9.20745 2.01364 -147.804 0 0 255
9.40229 -1.11501 -162.05 0 0 255
9.55905 -0.225999 -148.911 0 0 255
9.30745 -1.65288 -175.692 0 0 255
9.23754 -2.04934 -156.156 0 0 255
9.306 -1.66111 -137.634 0 0 255
9.0764 -2.96322 -131.059 0 0 255
8.38837 4.24264 -144.328 0 0 255
8.4817 4.08098 -152.659 0 0 255
9.01473 3.10665 -180.751 0 0 255
9.40417 0.897995 -191.317 0 0 255
9.07172 2.78342 -180.75 0 0 255
8.66698 -3.9664 -160.34 0 0 255
8.92343 -3.52222 -178.363 0 0 255
8.9603 -3.45836 -172.849 0 0 255
7.4994 -5.98871 -168.765 0 0 255
7.46593 -6.04668 -149.694 0 0 255
7.15033 6.22233 -180.847 0 0 255
6.7834 6.53021 -164.349 0 0 255
6.80845 6.50919 -179.977 0 0 255
7.54116 5.71004 -160.047 0 0 255
7.83143 5.20728 -195.743 0 0 255
7.51678 5.75227 -158.982 0 0 255
4.5979 8.27721 -190.627 0 0 255
4.65982 8.25467 -188.974 0 0 255
5.46823 7.63377 -168.126 0 0 255
4.85105 8.15165 -172.64 0 0 255
6.23691 6.98877 -196.033 0 0 255
1.49948 9.35098 -178.758 0 0 255
1.5155 9.35098 -161.898 0 0 255
-0.402121 9.35098 -135.114 0 0 255
2.39914 9.07749 -179.335 0 0 255
1.88486 9.26467 -146.953 0 0 255
1.71088 9.328 -173.215 0 0 255
-10.0301 -12.4167 -97.1315 0 0 255
-8.34098 -13.7127 392.563 0 0 255
-9.13819 -13.101 -102.395 0 0 255
-8.25077 -13.782 -64.0614 0 0 255
-10.3184 -12.1954 63.43 0 0 255
-10.2599 -12.2403 -74.0413 0 0 255
-8.35411 -13.7027 456.405 0 0 255
-10.3983 -12.1341 -18.4206 0 0 255
-9.66466 -12.697 63.1885 0 0 255
-8.53538 -13.5636 -118.694 0 0 255
-9.17297 -13.0743 -24.2255 0 0 255
-10.4198 -12.1176 -83.5572 0 0 255
-9.65902 -12.7014 92.1899 0 0 255
-9.57338 -12.7671 -38.016 0 0 255
-10.8464 -11.7903 -114.705 0 0 255
-9.83691 -12.5649 70.3327 0 0 255
-9.70124 -12.669 205.223 0 0 255
-8.54883 -13.5533 -104.525 0 0 255
-8.41012 -13.6597 351.403 0 0 255
-10.1842 -12.2984 -86.5041 0 0 255
-8.1131 -13.8876 -96.7058 0 0 255
-9.48634 -12.8339 182.888 0 0 255
-10.3603 -12.1633 14.5235 0 0 255
-9.32799 -12.9554 46.2308 0 0 255
-8.91316 -13.2737 143.111 0 0 255
-10.8795 -11.7648 -49.9696 0 0 255
-10.967 -11.6977 -65.3509 0 0 255
-8.58844 -13.5229 32.2373 0 0 255
-8.13386 -13.8717 433.436 0 0 255
-8.1734 -13.8413 385.522 0 0 255
-8.10677 -13.8925 174.25 0 0 255
-8.21205 -13.8117 389.046 0 0 255
-8.31265 -13.7345 -11.2401 0 0 255
-9.22875 -13.0315 136.466 0 0 255
-9.82764 -12.572 202.797 0 0 255
-9.91465 -12.5052 145.524 0 0 255
-8.42189 -13.6507 271.553 0 0 255
-7.66186 -12.6984 -129.572 0 0 255
-4.46357 -8.54648 -150.373 0 0 255
-2.98802 -9.08354 -138.13 0 0 255
-4.80388 -8.42262 -192.235 0 0 255
-6.30988 -7.16626 -177.559 0 0 255
-6.1813 -7.27415 -195.223 0 0 255
-6.84308 -6.71885 -191.222 0 0 255
0.0663307 -9.55732 -159.531 0 0 255
0.25456 -9.55732 -139.431 0 0 255
-1.77392 -9.52543 -147.345 0 0 255
-3.67338 -8.83409 -177.403 0 0 255
-2.26185 -9.34784 -180.829 0 0 255
-3.08209 0.319114 -320.098 0 0 255
-2.97846 0.63804 -300.244 0 0 255
-2.74791 1.34762 -334.63 0 0 255
-3.12454 0.188476 -292.235 0 0 255
-2.72955 1.43145 -309.042 0 0 255
-2.82794 1.28951 -223.132 0 0 255
-2.84608 1.24531 -214.168 0 0 255
-2.81844 -1.33687 -213.821 0 0 255
-2.90376 -1.07428 -251.78 0 0 255
-2.87734 -1.1556 -243.827 0 0 255
-2.62736 1.73539 -313.927 0 0 255
-2.01921 2.29384 -236.946 0 0 255
-2.40245 1.89823 -217.801 0 0 255
-1.80771 2.46241 -258.291 0 0 255
-2.38012 1.96389 -331.615 0 0 255
-1.51711 2.62461 -301.71 0 0 255
-1.46745 2.67618 -287.962 0 0 255
-0.973564 2.93419 -328.251 0 0 255
-0.807368 2.93639 -268.651 0 0 255
-0.29669 3.03607 -216.332 0 0 255
-1.12653 8.34983 -197.241 0 0 255
-0.709287 2.96732 -323.369 0 0 255
-0.23925 3.0149 -277.037 0 0 255
0.20838 3.00944 -282.357 0 0 255
0.720692 2.97353 -254.595 0 0 255
0.491327 3.01017 -222.102 0 0 255
-1.93256 -2.47493 -282.316 0 0 255
-2.26978 -2.22992 -254.595 0 0 255
-2.1141 -2.34303 -217.421 0 0 255
-2.5524 -2.02458 -318.238 0 0 255
-2.90067 -1.08381 -335.844 0 0 255
-2.6513 -1.85127 -329.704 0 0 255
-3.06909 -0.565443 -329.332 0 0 255
0.418389 -4.43376 -197.241 0 0 255
0.749903 -3.14655 -206.167 0 0 255
0.566105 -3.14655 -207.744 0 0 255
0.0412871 -3.14655 -225.47 0 0 255
-1.43838 -2.83397 -246.207 0 0 255
-1.9687 -2.44867 -301.47 0 0 255
-1.39136 -2.86813 -260.286 0 0 255
-1.6581 -2.67433 -289.333 0 0 255
-8.4069 13.4729 -25.6669 0 0 255
-8.25908 13.5583 63.1889 0 0 255
-8.24724 13.5612 40.852 0 0 255
-7.70278 13.8837 429.665 0 0 255
-8.3778 13.485 -44.0225 0 0 255
-8.26944 13.5565 88.7904 0 0 255
-7.91441 13.7389 131.82 0 0 255
-7.85353 13.8214 525.471 0 0 255
-7.31345 14.0129 -56.3845 0 0 255
-6.98579 14.2056 167.314 0 0 255
-7.70536 13.8768 387.672 0 0 255
-6.26097 14.5302 -103.93 0 0 255
-7.80027 13.7783 0.845388 0 0 255
-7.82072 13.8081 301.929 0 0 255
-6.96644 14.2112 136.906 0 0 255
-6.78358 14.2785 -41.0152 0 0 255
-7.97125 13.7152 166.756 0 0 255
-8.1504 13.656 392 0 0 255
-6.8082 14.2818 75.7331 0 0 255
-7.58016 13.9196 240.891 0 0 255
-6.63993 14.3596 31.602 0 0 255
-7.51588 13.9346 112.868 0 0 255
-7.67857 13.8286 -76.2483 0 0 255
-6.62923 14.3838 173.372 0 0 255
-7.98224 13.7179 228.403 0 0 255
-8.05059 13.6498 -28.8104 0 0 255
-7.73444 13.8835 546.733 0 0 255
-8.04651 13.7163 456.848 0 0 255
-7.88675 13.791 420.644 0 0 255
-7.00205 14.1826 54.8891 0 0 255
-7.9918 13.7556 547.535 0 0 255
-5.83945 14.7425 -84.2691 0 0 255
-8.42797 13.4554 -78.6246 0 0 255
-7.89961 13.7967 511.897 0 0 255
-7.81299 13.8342 469.449 0 0 255
-5.41121 14.8377 607.313 0 0 255
-6.93186 14.2123 579.385 0 0 255
-4.92485 15.0606 474.108 0 0 255
-4.97743 15.0824 203.047 0 0 255
-6.10133 14.5862 393.542 0 0 255
-5.6555 14.8293 30.3337 0 0 255
-7.0639 14.166 527.118 0 0 255
-7.07564 14.1591 539.607 0 0 255
-5.8423 14.6894 418.899 0 0 255
-6.83824 14.2649 493.305 0 0 255
-6.89696 14.2304 556.543 0 0 255
-6.58995 14.3816 407.236 0 0 255
-4.42616 15.2433 622.426 0 0 255
-4.81797 15.1019 492.156 0 0 255
-6.01807 14.6078 473.902 0 0 255
-5.23676 14.9474 374.172 0 0 255
-5.68515 14.8057 100.334 0 0 255
-5.3899 14.9444 -1.18716 0 0 255
-4.35644 15.2893 515.572 0 0 255
-5.93336 14.6191 621.43 0 0 255
-5.0473 15.039 293.014 0 0 255
-5.25055 14.9074 587.558 0 0 255
-4.85717 15.0742 563.557 0 0 255
-5.70397 14.74 460.65 0 0 255
-6.98155 14.2211 396.961 0 0 255
-6.06881 14.6145 301.212 0 0 255
-7.73915 13.8799 566.974 0 0 255
-5.57354 14.812 349.134 0 0 255
-4.33287 15.2962 533.75 0 0 255
-4.48734 15.2471 441.094 0 0 255
-6.49846 14.4094 470.143 0 0 255
-6.18405 14.5876 171.861 0 0 255
-5.48472 14.8779 168.162 0 0 255
-5.73494 14.776 157.297 0 0 255
-6.12239 14.6216 119.087 0 0 255
-6.25664 14.5341 317.289 0 0 255
-6.21263 14.5399 394.875 0 0 255
-3.11792 15.4827 -60.3904 0 0 255
-3.50063 15.4034 -29.257 0 0 255
-1.97953 15.7226 -124.465 0 0 255
-3.72842 15.3764 133.972 0 0 255
-3.11317 15.4828 -67.5618 0 0 255
-4.13318 15.3239 391.342 0 0 255
-3.16212 15.5091 197.676 0 0 255
-2.84922 15.575 180.255 0 0 255
-4.67636 15.1335 -121.851 0 0 255
-3.56117 15.3768 -124.997 0 0 255
-3.76998 15.3478 -6.10039 0 0 255
-3.93448 15.3693 405.443 0 0 255
-4.13034 15.2742 31.0793 0 0 255
-3.90552 15.3486 211.676 0 0 255
-4.15233 15.3451 573.306 0 0 255
-4.9204 15.1071 70.9419 0 0 255
-3.88204 15.366 299.884 0 0 255
-3.66471 15.4191 340.294 0 0 255
-3.56818 15.4414 348.385 0 0 255
-3.32211 15.4453 -8.44441 0 0 255
-4.98646 15.0858 22.2108 0 0 255
-5.02878 15.0646 -63.8547 0 0 255
-1.58631 15.8109 -107.384 0 0 255
-5.06012 15.0648 -13.2699 0 0 255
-4.09025 15.3228 316.174 0 0 255
-2.93337 15.5325 7.35591 0 0 255
-2.95327 15.538 77.7337 0 0 255
-2.19538 15.6881 -33.8045 0 0 255
-4.53408 15.1673 -102.315 0 0 255
-4.66066 15.1537 -1.85729 0 0 255
-2.28786 15.6602 -88.3686 0 0 255
-3.02571 15.5425 223.668 0 0 255
-4.29169 15.25 110.085 0 0 255
-4.72379 15.1221 -129.135 0 0 255
-3.50979 15.4366 222.835 0 0 255
-3.35535 15.4394 0.958143 0 0 255
-1.71967 15.6839 567.15 0 0 255
-1.91231 15.6952 344.739 0 0 255
-3.60785 15.4251 629.007 0 0 255
-2.92566 15.5331 518.831 0 0 255
-2.39031 15.6149 449.887 0 0 255
-0.63063 15.8427 473.595 0 0 255
-2.16086 15.7072 73.2475 0 0 255
-3.95815 15.3827 606.066 0 0 255
-1.73643 15.7743 5.33734 0 0 255
-3.51625 15.4426 595.983 0 0 255
-1.90592 15.6645 535.574 0 0 255
-1.90048 15.6599 568.224 0 0 255
-2.15995 15.64 481.561 0 0 255
-0.817414 15.8492 284.913 0 0 255
-1.55051 15.7442 336.628 0 0 255
-1.00405 15.8422 178.385 0 0 255
-3.15864 15.4884 603.495 0 0 255
-1.63911 15.7591 175.433 0 0 255
-1.65255 15.7119 450.677 0 0 255
-1.43785 15.7194 576.421 0 0 255
-3.70868 15.4292 523.462 0 0 255
-3.56176 15.4449 545.666 0 0 255
-2.87919 15.5536 431.27 0 0 255
-2.72319 15.5748 427.089 0 0 255
-0.9615 15.7909 523.142 0 0 255
-1.81649 15.6992 396.833 0 0 255
-1.80658 15.6938 437.747 0 0 255
-3.40328 15.4693 524.155 0 0 255
-2.13134 15.6841 236.916 0 0 255
-1.50743 15.7534 315.172 0 0 255
-1.8637 15.679 481.744 0 0 255
-0.980981 15.8023 438.734 0 0 255
-1.74516 15.6817 560.097 0 0 255
-1.07122 15.8438 115.078 0 0 255
-1.24928 15.8361 19.6688 0 0 255
-0.721145 15.8244 512.037 0 0 255
-0.905748 15.789 579.088 0 0 255
-0.569738 15.8202 2.47625 0 0 255
-0.780715 15.8436 115.41 0 0 255
1.21263 15.7594 -31.083 0 0 255
0.878312 15.7581 -110.018 0 0 255
0.636431 15.7633 -126.075 0 0 255
0.332848 15.8548 424.664 0 0 255
-0.714874 15.8387 96.2596 0 0 255
-0.287701 15.8491 256.197 0 0 255
-1.08413 15.8191 -112.443 0 0 255
1.75928 15.7283 -124.499 0 0 255
1.03427 15.7577 -79.4972 0 0 255
-0.659375 15.8342 78.2037 0 0 255
-0.169321 15.7908 -110.604 0 0 255
-0.889354 15.8157 -94.3234 0 0 255
-0.265007 15.8709 407.474 0 0 255
-0.426177 15.8766 411.728 0 0 255
0.658779 15.7877 42.8126 0 0 255
-0.0778999 15.8592 368.168 0 0 255
0.979488 15.7834 81.5555 0 0 255
-0.230491 15.8538 299.673 0 0 255
0.197933 15.7942 -10.3857 0 0 255
2.04644 15.7222 -105.409 0 0 255
1.74066 15.7394 -54.0968 0 0 255
1.4926 15.7573 13.8347 0 0 255
-0.4342 15.8296 94.353 0 0 255
-0.619734 15.8597 257.26 0 0 255
1.54521 15.758 29.7049 0 0 255
-0.985077 15.8368 27.1539 0 0 255
-0.478749 15.8193 15.7731 0 0 255
0.28332 15.8662 490.669 0 0 255
0.150124 15.8495 351.035 0 0 255
-0.0214006 15.8354 220.077 0 0 255
1.06989 15.7844 106.876 0 0 255
1.13337 15.7814 100.133 0 0 255
0.116474 15.8769 528.068 0 0 255
0.889831 15.0249 -129.572 0 0 255
-1.1382 9.35098 -140.712 0 0 255
-1.17743 9.35098 -160.588 0 0 255
1.22551 13.7838 633.066 0 0 255
5.36201 14.9163 227.827 0 0 255
5.34738 14.9128 277.317 0 0 255
6.27477 14.5149 348.463 0 0 255
6.34417 14.4552 508.407 0 0 255
6.23756 14.5518 237.708 0 0 255
6.71293 14.3046 497.509 0 0 255
6.82362 14.2969 300.457 0 0 255
4.52398 15.1909 602.797 0 0 255
6.74492 14.2685 615.703 0 0 255
5.93336 14.6544 358.538 0 0 255
6.04364 14.5864 473.644 0 0 255
5.92288 14.6241 537.408 0 0 255
5.48933 14.8642 224.65 0 0 255
6.32162 14.5082 282.868 0 0 255
6.28755 14.5943 -89.1466 0 0 255
6.44701 14.4438 347.574 0 0 255
5.0661 14.9808 528.358 0 0 255
5.03039 14.9939 536.783 0 0 255
6.55498 14.3722 486.342 0 0 255
5.15474 14.9478 509.144 0 0 255
5.93802 14.6822 204.991 0 0 255
4.92391 15.0634 405.921 0 0 255
7.10865 14.1362 520.485 0 0 255
6.85555 14.2394 529.425 0 0 255
5.52027 14.7885 549.978 0 0 255
6.94147 14.2311 388.043 0 0 255
6.3472 14.5309 110.717 0 0 255
5.78115 14.7621 127.669 0 0 255
6.81103 14.2618 508.629 0 0 255
5.97023 14.6728 184.261 0 0 255
5.04251 15.0068 444.381 0 0 255
5.06678 14.9689 588.417 0 0 255
5.8396 14.7447 92.4986 0 0 255
7.34194 14.035 544.411 0 0 255
4.80744 15.0762 588.759 0 0 255
6.64104 14.3958 180.032 0 0 255
5.42621 14.8754 302.162 0 0 255
8.3375 13.4258 -25.9998 0 0 255
8.68753 13.267 211.396 0 0 255
8.30287 13.5057 299.991 0 0 255
7.76909 13.7976 208.581 0 0 255
6.74412 14.3688 91.8731 0 0 255
8.81877 13.1438 -46.2932 0 0 255
7.88067 13.7004 31.0585 0 0 255
8.78124 13.1549 -103.78 0 0 255
7.484 13.9459 118.895 0 0 255
7.42038 14.0039 234.322 0 0 255
7.72502 13.8012 89.4841 0 0 255
7.87451 13.7321 183.794 0 0 255
7.91734 13.6764 15.8458 0 0 255
7.71774 13.7898 4.52862 0 0 255
7.05293 14.2089 193.569 0 0 255
7.68636 13.7926 -78.6081 0 0 255
7.97609 13.6304 -49.641 0 0 255
7.91727 13.7778 566.978 0 0 255
7.88154 13.7376 236.187 0 0 255
8.99333 13.075 128.599 0 0 255
8.06881 13.6643 426.305 0 0 255
7.18196 14.1437 244.482 0 0 255
8.12124 13.5587 16.6871 0 0 255
8.9447 13.0789 -3.04541 0 0 255
7.61201 13.9234 398.969 0 0 255
7.33356 14.0504 213.845 0 0 255
8.13218 13.6018 285.797 0 0 255
8.3929 13.4183 107.652 0 0 255
9.16259 12.9545 5.35865 0 0 255
8.68956 13.2294 13.0655 0 0 255
8.97205 13.0525 -60.7841 0 0 255
7.06157 14.1612 -38.7359 0 0 255
8.73395 13.2391 205.361 0 0 255
8.23322 13.5723 443.017 0 0 255
7.15808 14.1063 -33.9872 0 0 255
4.88912 15.0175 -76.2272 0 0 255
4.61667 15.1686 375.495 0 0 255
4.80033 15.0875 198.341 0 0 255
5.18108 14.943 -22.2598 0 0 255
5.34272 14.9012 3.86312 0 0 255
4.74544 15.0531 -109.179 0 0 255
5.12145 14.9911 169.047 0 0 255
3.67183 15.4395 384.7 0 0 255
3.6243 15.3995 55.3658 0 0 255
3.21892 15.4876 -113.936 0 0 255
4.65672 15.1304 210.613 0 0 255
3.27754 15.4936 25.9296 0 0 255
4.76959 15.0714 46.0234 0 0 255
5.51423 14.8699 112.307 0 0 255
4.07883 15.3602 610.402 0 0 255
4.45835 15.1417 -67.5148 0 0 255
4.10099 15.3329 481.569 0 0 255
3.00616 15.5597 -43.6005 0 0 255
4.35411 15.2125 184.889 0 0 255
4.74128 15.0925 125.897 0 0 255
4.05589 15.3495 504.422 0 0 255
3.06295 15.5703 121.391 0 0 255
4.02624 15.2711 -29.3839 0 0 255
4.98186 15.0382 213.509 0 0 255
4.15421 15.2771 231.423 0 0 255
3.1173 15.525 -62.2195 0 0 255
5.8383 14.7552 -24.9359 0 0 255
4.70002 15.0679 -97.4062 0 0 255
5.1925 14.9651 133.567 0 0 255
3.54797 15.3995 -78.3525 0 0 255
4.40559 15.1592 -52.4652 0 0 255
3.65016 15.3718 -69.5811 0 0 255
4.19489 15.2504 138.649 0 0 255
6.05558 14.6765 -127.518 0 0 255
2.62209 15.6618 -88.7135 0 0 255
5.60134 14.8162 -64.9994 0 0 255
-6.08401 -14.7612 410.235 0 0 255
-7.09729 -14.3415 70.9183 0 0 255
-7.60555 -14.131 532.64 0 0 255
-5.43612 -15.0296 603.521 0 0 255
-5.78849 -14.8836 409.023 0 0 255
-6.6935 -14.5087 231.935 0 0 255
-7.58301 -14.1403 65.7904 0 0 255
-5.5869 -14.9671 459.925 0 0 255
-7.92689 -13.9978 512.845 0 0 255
-7.10073 -14.3401 358.343 0 0 255
-7.49361 -14.1773 418.446 0 0 255
-6.94436 -14.4048 433.125 0 0 255
-7.81499 -14.0442 77.0975 0 0 255
-6.9291 -14.4112 240.048 0 0 255
-7.70108 -14.0914 134.949 0 0 255
-4.97575 -15.2203 579.812 0 0 255
-5.46395 -15.018 603.556 0 0 255
-7.34739 -14.2379 501.165 0 0 255
-7.253 -14.277 149.91 0 0 255
-4.85091 -15.272 522.233 0 0 255
-6.2756 -14.6818 233.091 0 0 255
-7.9657 -13.9818 495.424 0 0 255
-7.69595 -14.0935 327.624 0 0 255
-7.48546 -14.1807 263.493 0 0 255
-7.43245 -14.2027 593.315 0 0 255
-7.02562 -14.3712 554.169 0 0 255
-5.65952 -14.937 432.323 0 0 255
-6.29121 -14.6754 380.131 0 0 255
-8.01471 -13.9615 63.4943 0 0 255
-7.80665 -14.0477 155.58 0 0 255
-5.1368 -15.1535 440.757 0 0 255
-5.85671 -14.8553 497.229 0 0 255
-5.37197 -15.0561 563.798 0 0 255
-5.91441 -14.8314 517.784 0 0 255
-7.43042 -14.2035 306.576 0 0 255
-8.00616 -13.965 335.955 0 0 255
-7.05387 -14.3595 155.287 0 0 255
-3.57876 -13.4812 633.066 0 0 255
11.1815 -11.5035 523.338 0 0 255
9.68281 -12.6535 -92.5162 0 0 255
10.8308 -11.7726 -12.5146 0 0 255
10.7042 -11.8698 248.133 0 0 255
10.901 -11.7187 1.42189 0 0 255
10.5731 -11.9703 -31.6639 0 0 255
11.0168 -11.6299 103.562 0 0 255
10.272 -12.2014 272.163 0 0 255
9.31075 -12.939 -71.4027 0 0 255
8.48974 -13.569 -38.6793 0 0 255
9.18546 -13.0351 59.1889 0 0 255
10.9405 -11.6885 474.329 0 0 255
10.6477 -11.9131 414.723 0 0 255
10.0888 -12.342 150.416 0 0 255
10.6325 -11.9248 317.927 0 0 255
9.82703 -12.5428 -74.02 0 0 255
9.54068 -12.7626 -81.8096 0 0 255
10.6363 -11.9219 308.053 0 0 255
10.3685 -12.1274 88.0209 0 0 255
11.0425 -11.6102 51.5613 0 0 255
10.705 -11.8691 -14.2912 0 0 255
8.77116 -13.353 -59.4118 0 0 255
10.6469 -11.9137 339.706 0 0 255
8.37929 -13.6537 -126.198 0 0 255
10.7314 -11.8489 461.23 0 0 255
11.1979 -11.4909 -63.4068 0 0 255
10.3768 -12.121 -73.9618 0 0 255
9.92754 -12.4657 -68.3203 0 0 255
10.705 -11.8692 443.991 0 0 255
10.5465 -11.9908 -61.0983 0 0 255
9.52828 -12.7721 111.206 0 0 255
10.2635 -12.2079 253.018 0 0 255
11.0772 -11.5835 168.4 0 0 255
10.755 -11.8308 251.622 0 0 255
