ply
format ascii 1.0
comment Created by Open3D
element vertex 1222
property double x
property double y
property double z
property uchar red
property uchar green
property uchar blue
end_header
0.0195389 -0.00344813 -0.0568135 0 0 255
0.0195422 -0.00342287 0.119797 0 0 255
0.0198669 -0.000956906 0.281173 0 0 255
0.0195898 -0.00306136 -0.0800747 0 0 255
0.0198668 -0.000957591 0.454518 0 0 255
0.0199073 -0.000649803 0.0358015 0 0 255
0.0196504 -0.00260119 -0.160018 0 0 255
0.019438 -0.00421455 -0.0456578 0 0 255
0.0199256 -0.000510937 -0.105697 0 0 255
0.0199069 -0.000652732 0.0885647 0 0 255
0.0197671 -0.00171495 0.419113 0 0 255
0.0198626 -0.000989055 0.469069 0 0 255
0.0194212 -0.00434212 -0.111994 0 0 255
0.0199371 -0.000423637 0.497522 0 0 255
0.0199352 -0.000437831 0.0878467 0 0 255
0.0199573 -0.000270124 0.320729 0 0 255
0.0198818 -0.000843504 0.167629 0 0 255
0.0196475 -0.00262332 -0.0924283 0 0 255
0.0194012 -0.00449376 -0.0131197 0 0 255
0.0196485 -0.00261578 0.0595345 0 0 255
0.0194652 -0.00400828 -0.13625 0 0 255
0.0197197 -0.00207482 0.351599 0 0 255
0.0198141 -0.0013578 0.188857 0 0 255
0.0198411 -0.00115257 0.276775 0 0 255
0.0196136 -0.00288057 0.246226 0 0 255
0.0195369 -0.00346317 -0.103934 0 0 255
0.0196686 -0.00246275 0.0514802 0 0 255
0.0198483 -0.00109799 0.387497 0 0 255
0.0198173 -0.00133357 0.384712 0 0 255
0.0199324 -0.00045895 0.12131 0 0 255
0.019924 -0.000522809 0.10529 0 0 255
0.0197477 -0.00186222 0.366496 0 0 255
0.0196701 -0.00245159 -0.0178498 0 0 255
0.0199204 -0.000550699 -0.12065 0 0 255
0.0196557 -0.00256087 -0.0902443 0 0 255
0.0197579 -0.0017845 0.214083 0 0 255
0.0199162 -0.000581951 0.161982 0 0 255
0.0195942 -0.00302845 -0.0663784 0 0 255
0.0199435 -0.000374586 0.49975 0 0 255
0.0194651 -0.00400888 0.0183455 0 0 255
0.0198018 -0.00145146 -0.0642157 0 0 255
0.0199547 -0.000289814 0.686319 0 0 255
0.0198074 -0.00140841 0.483683 0 0 255
0.0194352 -0.00423619 -0.0978348 0 0 255
0.0199039 -0.000675503 -0.12415 0 0 255
0.0194884 -0.00383183 -0.0326316 0 0 255
0.0198796 -0.000860098 0.338198 0 0 255
0.0197896 -0.00154376 0.236989 0 0 255
0.0195953 -0.00301998 0.0908391 0 0 255
0.0195956 -0.00301722 -0.0100062 0 0 255
0.0197233 -0.00204745 0.364172 0 0 255
0.019923 -0.000530698 0.222708 0 0 255
0.0197431 -0.00189715 0.238535 0 0 255
0.0197778 -0.00163328 0.288618 0 0 255
0.0198885 -0.000792988 0.330784 0 0 255
0.0199107 -0.000624083 0.114785 0 0 255
0.0199679 -0.000189409 0.367265 0 0 255
0.0195074 -0.00368726 -0.0487513 0 0 255
0.0199614 -0.000238787 0.456257 0 0 255
0.0193281 -0.00504927 -0.142763 0 0 255
0.0195942 -0.00302795 -0.00347149 0 0 255
0.0197638 -0.00174011 0.253961 0 0 255
0.0196837 -0.00234808 0.224173 0 0 255
0.0198655 -0.000967622 0.21569 0 0 255
0.0197908 -0.00153513 -0.161831 0 0 255
0.0197684 -0.00170519 0.249198 0 0 255
0.0197802 -0.00161554 0.357219 0 0 255
0.0199626 -0.000229612 0.625425 0 0 255
0.0197314 -0.0019861 0.26522 0 0 255
0.0199055 -0.000663182 0.192695 0 0 255
0.0198276 -0.0012555 -0.0400024 0 0 255
0.0196007 -0.00297881 0.0958534 0 0 255
0.0193768 -0.00467947 -0.0579739 0 0 255
0.0196987 -0.00223472 0.326238 0 0 255
0.0196769 -0.00239997 0.0504684 0 0 255
0.0198156 -0.00134675 0.056212 0 0 255
0.0198014 -0.00145398 0.154505 0 0 255
0.0194702 -0.00397013 -0.0422207 0 0 255
0.0199152 -0.000589926 -0.0135287 0 0 255
0.0197889 -0.00154932 0.305694 0 0 255
0.0198863 -0.000809439 -0.101458 0 0 255
0.0199179 -0.000569369 0.52504 0 0 255
0.0198682 -0.000946805 -0.144162 0 0 255
0.019617 -0.00285491 0.249356 0 0 255
0.0195429 -0.0034176 -0.0544089 0 0 255
0.0199668 -0.000197981 0.312734 0 0 255
0.0194429 -0.00417729 0.0360147 0 0 255
0.0195408 -0.00343382 -0.0168813 0 0 255
0.0199476 -0.000344006 0.00902436 0 0 255
0.0196338 -0.00272707 -0.0562617 0 0 255
0.0199122 -0.000612406 0.379925 0 0 255
0.0198161 -0.00134232 0.0406413 0 0 255
0.0196698 -0.00245394 -0.12478 0 0 255
0.0195789 -0.00314424 0.208794 0 0 255
0.0197147 -0.0021127 0.0635211 0 0 255
0.0197636 -0.00174122 -0.0436639 0 0 255
0.0194275 -0.00429447 -0.134386 0 0 255
0.0197706 -0.00168792 0.464584 0 0 255
0.0195991 -0.00299064 0.18975 0 0 255
0.0196766 -0.00240242 0.10558 0 0 255
0.019586 -0.00309073 0.214896 0 0 255
0.0199078 -0.000646163 0.373508 0 0 255
0.0197286 -0.00200742 -0.0885466 0 0 255
0.0198875 -0.000800115 -0.0832949 0 0 255
0.0197811 -0.00160817 0.454835 0 0 255
0.0194968 -0.00376783 -0.135419 0 0 255
0.0196564 -0.00255595 -0.124114 0 0 255
0.0195394 -0.00344448 0.161811 0 0 255
0.0195507 -0.00335839 0.0952799 0 0 255
0.0199733 -0.000148536 0.611896 0 0 255
0.0196216 -0.00281991 0.288049 0 0 255
0.0195598 -0.0032894 -0.0701316 0 0 255
0.0197962 -0.00149405 0.137958 0 0 255
0.0195765 -0.00316263 0.0251225 0 0 255
0.0197115 -0.00213738 -0.0285706 0 0 255
0.0193765 -0.00468172 -0.141584 0 0 255
0.0199656 -0.000206895 0.671589 0 0 255
0.0193567 -0.00483224 -0.11065 0 0 255
0.0197174 -0.00209242 0.0998671 0 0 255
0.0199715 -0.000162167 0.317272 0 0 255
0.0196568 -0.00255244 -0.140358 0 0 255
0.0196591 -0.00253521 -0.07362 0 0 255
0.0198919 -0.000766786 0.203568 0 0 255
0.0196886 -0.00231101 0.196716 0 0 255
0.0196179 -0.00284803 0.224707 0 0 255
0.0198927 -0.000761095 0.658232 0 0 255
0.0197232 -0.00204828 -0.140424 0 0 255
0.0196413 -0.00266999 0.283786 0 0 255
0.0196322 -0.0027398 0.282506 0 0 255
0.0195668 -0.00323592 0.207241 0 0 255
0.0196275 -0.00277495 0.15442 0 0 255
0.019932 -0.000462327 0.350421 0 0 255
0.0196444 -0.00264656 0.132317 0 0 255
0.0198266 -0.0012632 0.507317 0 0 255
0.0198059 -0.00142009 0.0435993 0 0 255
0.0198297 -0.00123922 0.190294 0 0 255
0.0198834 -0.000831382 0.133215 0 0 255
0.019873 -0.000910442 0.323285 0 0 255
0.0198514 -0.00107462 0.541332 0 0 255
0.0198667 -0.000958461 0.135409 0 0 255
0.0197955 -0.00149924 0.305028 0 0 255
0.0199591 -0.000256293 0.273176 0 0 255
0.0196243 -0.00279917 0.28617 0 0 255
0.0198187 -0.00132278 0.367132 0 0 255
0.0198545 -0.00105092 0.285899 0 0 255
0.0194694 -0.00397602 -0.0920935 0 0 255
0.0198738 -0.000904361 0.552098 0 0 255
0.0197835 -0.00158992 -0.148353 0 0 255
0.0197396 -0.00192373 0.0481914 0 0 255
0.0196252 -0.00279263 0.100974 0 0 255
0.0199645 -0.000215111 0.512929 0 0 255
0.0195197 -0.00359365 0.0908486 0 0 255
0.0199627 -0.00022917 0.308898 0 0 255
0.0194912 -0.00381068 -0.00650114 0 0 255
0.0197218 -0.00205923 0.435222 0 0 255
0.0197538 -0.00181562 -0.0295828 0 0 255
0.0197313 -0.00198677 -0.149435 0 0 255
0.0199528 -0.000304223 0.672529 0 0 255
0.0196461 -0.0026339 0.173555 0 0 255
0.0198474 -0.00110504 0.371386 0 0 255
0.0199012 -0.00069636 0.0478764 0 0 255
0.0197246 -0.00203774 0.395902 0 0 255
0.0199542 -0.000293319 0.154693 0 0 255
0.0199706 -0.000168856 0.280312 0 0 255
0.01949 -0.00381957 -0.069358 0 0 255
0.0199461 -0.000355534 0.0669827 0 0 255
0.0196545 -0.00256975 0.0363399 0 0 255
0.0196031 -0.00296034 -0.101437 0 0 255
0.0199221 -0.00053729 0.293394 0 0 255
0.0198043 -0.00143246 0.170805 0 0 255
0.0198763 -0.000885515 -0.0032829 0 0 255
0.0195814 -0.00312505 0.00663586 0 0 255
0.0199347 -0.000442093 0.494952 0 0 255
0.0195593 -0.00329286 -0.0494071 0 0 255
0.0199232 -0.000529341 0.145032 0 0 255
0.019624 -0.00280155 -0.0381794 0 0 255
0.0197859 -0.00157186 0.212656 0 0 255
0.0199169 -0.000576889 0.235955 0 0 255
0.0199287 -0.000487373 0.400637 0 0 255
0.0196288 -0.00276555 0.0589868 0 0 255
0.0196848 -0.00233957 -0.02267 0 0 255
0.0197514 -0.00183438 0.265822 0 0 255
0.0196675 -0.0024712 0.0601729 0 0 255
0.0199052 -0.000666128 0.148115 0 0 255
0.0199114 -0.000618624 0.0190938 0 0 255
0.0195516 -0.0033514 0.0490358 0 0 255
0.0197969 -0.00148858 0.255071 0 0 255
0.0193893 -0.00458473 -0.145902 0 0 255
0.0195836 -0.0031084 -0.0734785 0 0 255
0.0199386 -0.000412413 0.723474 0 0 255
0.0198246 -0.00127795 -0.00716779 0 0 255
0.0197055 -0.00218304 -0.110323 0 0 255
0.019428 -0.00429038 -0.101625 0 0 255
0.0197226 -0.00205282 0.0168724 0 0 255
0.0197466 -0.0018703 0.169697 0 0 255
0.0196902 -0.00229886 0.0627646 0 0 255
0.0199648 -0.000213311 0.14276 0 0 255
0.0197582 -0.00178251 0.217421 0 0 255
0.0194116 -0.00441515 -0.000785179 0 0 255
0.019622 -0.00281689 0.262138 0 0 255
0.0199486 -0.000336121 0.119108 0 0 255
0.0194524 -0.00410535 -0.0467173 0 0 255
0.019839 -0.0011685 -0.075486 0 0 255
0.0198769 -0.000880626 -0.114128 0 0 255
0.019479 -0.00390289 0.026326 0 0 255
0.0197492 -0.00185108 -0.0777587 0 0 255
0.0193709 -0.00472403 -0.124794 0 0 255
0.0199083 -0.000642613 0.396918 0 0 255
0.0199451 -0.000362982 0.450563 0 0 255
0.0197279 -0.00201236 0.427064 0 0 255
0.0196085 -0.00291934 -0.0998548 0 0 255
0.0198151 -0.00135018 0.433758 0 0 255
0.0194178 -0.00436803 0.00588256 0 0 255
0.019863 -0.000986277 0.24811 0 0 255
0.0198038 -0.00143591 0.370044 0 0 255
0.0197968 -0.00148904 0.384497 0 0 255
0.019965 -0.000211637 0.629025 0 0 255
0.0197615 -0.00175735 0.381388 0 0 255
0.0197074 -0.00216863 0.00663877 0 0 255
0.019423 -0.00432832 -0.136338 0 0 255
0.019885 -0.000819215 -0.0613818 0 0 255
0.0198918 -0.000767568 -0.0239656 0 0 255
0.0194344 -0.00424186 -0.148978 0 0 255
0.0197349 -0.00195975 -0.0314153 0 0 255
0.0196375 -0.00269908 0.0624723 0 0 255
0.0194986 -0.00375416 0.082901 0 0 255
0.0197776 -0.00163512 0.403133 0 0 255
0.0198763 -0.000885317 0.148702 0 0 255
0.0196887 -0.00231012 0.294792 0 0 255
0.0199167 -0.000578561 0.148982 0 0 255
0.019615 -0.00287047 -0.11157 0 0 255
0.019391 -0.00457156 -0.157309 0 0 255
0.0197046 -0.00218974 -0.141226 0 0 255
0.0199382 -0.00041531 0.563023 0 0 255
0.0198193 -0.00131831 0.220645 0 0 255
0.019457 -0.00407016 0.0600453 0 0 255
0.0199377 -0.000418737 0.0212185 0 0 255
0.0195441 -0.00340845 0.0644779 0 0 255
0.0198807 -0.000851633 0.0262694 0 0 255
0.0198142 -0.00135721 0.0591544 0 0 255
0.0198814 -0.000846731 0.243347 0 0 255
0.0197635 -0.00174216 0.145569 0 0 255
0.0199327 -0.000456759 0.302793 0 0 255
0.019714 -0.00211827 0.211707 0 0 255
0.0198268 -0.00126154 -0.148713 0 0 255
0.0193864 -0.00460676 -0.0338774 0 0 255
0.0199449 -0.000364548 -0.00209467 0 0 255
0.019849 -0.0010929 -0.128779 0 0 255
0.0196622 -0.00251125 0.185611 0 0 255
0.0199248 -0.000516985 -0.023248 0 0 255
0.0198971 -0.000727489 0.148813 0 0 255
0.0197671 -0.00171486 0.0244523 0 0 255
0.0198309 -0.00123011 0.184524 0 0 255
0.0194427 -0.00417872 -0.0802481 0 0 255
0.0197618 -0.00175493 -0.137159 0 0 255
0.0199166 -0.000579341 0.134328 0 0 255
0.0199044 -0.000671723 0.406426 0 0 255
0.0199476 -0.000343931 0.523805 0 0 255
0.0197546 -0.0018098 0.122436 0 0 255
0.0198699 -0.000933757 0.592148 0 0 255
0.0198977 -0.00072265 0.431252 0 0 255
0.0196688 -0.00246165 0.157831 0 0 255
0.0196749 -0.00241492 0.227852 0 0 255
0.0193574 -0.00482695 -0.154235 0 0 255
0.0197867 -0.00156623 0.120986 0 0 255
0.019552 -0.00334895 0.146036 0 0 255
0.0198755 -0.000891064 0.340079 0 0 255
0.0199412 -0.000392708 0.340212 0 0 255
0.0199151 -0.000590483 0.0544839 0 0 255
0.0199687 -0.000183869 0.0099502 0 0 255
0.0193566 -0.00483292 -0.0875903 0 0 255
0.019871 -0.00092579 0.635742 0 0 255
0.0195209 -0.00358473 0.0325401 0 0 255
0.0197638 -0.00173989 0.399656 0 0 255
0.0198442 -0.00112927 0.513251 0 0 255
0.0199544 -0.000292081 0.21742 0 0 255
0.0196295 -0.00275973 -0.109173 0 0 255
0.019588 -0.00307499 0.237963 0 0 255
0.0197395 -0.00192475 0.22244 0 0 255
0.0199746 -0.000138943 0.460397 0 0 255
0.0195292 -0.00352151 -0.078186 0 0 255
0.0199142 -0.000597212 -0.0142618 0 0 255
0.0198516 -0.00107319 0.538319 0 0 255
0.0198865 -0.000807903 0.315811 0 0 255
0.0195129 -0.00364579 -0.112074 0 0 255
0.0197574 -0.0017883 -0.161037 0 0 255
0.0197822 -0.00160018 0.418254 0 0 255
0.0196898 -0.00230167 0.0992507 0 0 255
0.0196724 -0.00243437 0.143558 0 0 255
0.0197243 -0.00204017 0.437584 0 0 255
0.0194516 -0.00411151 -0.146304 0 0 255
0.0196673 -0.00247303 0.120051 0 0 255
0.0198429 -0.00113875 0.526039 0 0 255
0.019885 -0.000819011 0.107331 0 0 255
0.0198403 -0.00115886 0.0331183 0 0 255
0.0199672 -0.000194522 0.352567 0 0 255
0.0199298 -0.000478939 0.157667 0 0 255
0.0197247 -0.00203687 0.0523508 0 0 255
0.0196632 -0.0025043 0.216843 0 0 255
0.0199662 -0.000202579 -0.138777 0 0 255
0.0197636 -0.00174162 0.066767 0 0 255
0.0197983 -0.00147771 0.280893 0 0 255
0.01993 -0.000477106 -0.0157033 0 0 255
0.0193878 -0.00459626 -0.10324 0 0 255
0.0199499 -0.000325979 -0.141796 0 0 255
0.0198867 -0.000806628 0.0934545 0 0 255
0.0196535 -0.00257774 0.0672994 0 0 255
0.0196905 -0.00229684 0.127042 0 0 255
0.0198611 -0.00100082 0.166122 0 0 255
0.0199133 -0.00060442 0.0943544 0 0 255
0.0196587 -0.00253788 0.210602 0 0 255
0.0194579 -0.00406363 -0.0870767 0 0 255
0.0199367 -0.00042663 -0.153746 0 0 255
0.0196854 -0.00233535 0.112484 0 0 255
0.019939 -0.000409083 0.319411 0 0 255
0.019858 -0.00102447 0.0727017 0 0 255
0.0195577 -0.00330517 0.0161792 0 0 255
0.0199414 -0.000391105 -0.051415 0 0 255
0.0195823 -0.00311875 -0.0425348 0 0 255
0.0194957 -0.00377606 0.0536521 0 0 255
0.0195344 -0.003482 -0.0895613 0 0 255
0.0199637 -0.000221611 0.158247 0 0 255
0.0196215 -0.0028211 0.149 0 0 255
0.0194115 -0.00441602 -0.124163 0 0 255
0.0198119 -0.00137447 0.100353 0 0 255
0.0195243 -0.003559 -0.13701 0 0 255
0.0199045 -0.000671272 0.134342 0 0 255
0.0196071 -0.0029305 -0.110832 0 0 255
0.0197455 -0.00187882 -0.123024 0 0 255
0.0197362 -0.00194983 0.2773 0 0 255
0.019471 -0.00396392 -0.148625 0 0 255
0.0196761 -0.00240578 -0.0302211 0 0 255
0.019749 -0.00185258 0.337712 0 0 255
0.0194446 -0.00416436 -0.0556064 0 0 255
0.019703 -0.00220144 -0.149634 0 0 255
0.0198944 -0.000747618 0.310284 0 0 255
0.0198789 -0.000865455 0.367008 0 0 255
0.0199252 -0.000514105 0.300202 0 0 255
0.0195176 -0.00361013 -0.00835308 0 0 255
0.0198434 -0.0011352 0.307367 0 0 255
0.0198225 -0.00129434 0.289127 0 0 255
0.0197102 -0.00214712 0.128184 0 0 255
0.019953 -0.000302727 0.723544 0 0 255
0.0197823 -0.00159938 0.372525 0 0 255
0.0194802 -0.00389437 -0.112557 0 0 255
0.0193869 -0.00460266 -0.0842089 0 0 255
0.0196995 -0.00222831 0.316109 0 0 255
0.0199487 -0.000335337 0.222594 0 0 255
0.0197745 -0.00165894 -0.0384547 0 0 255
0.019887 -0.00080378 0.0336188 0 0 255
0.0197448 -0.00188393 0.186079 0 0 255
0.019407 -0.00444998 -0.0961035 0 0 255
0.0194945 -0.00378514 0.0350767 0 0 255
0.0196215 -0.00282088 -0.000170669 0 0 255
0.0195639 -0.00325797 0.0430756 0 0 255
0.0198343 -0.0012043 0.426756 0 0 255
0.019905 -0.000667436 0.531378 0 0 255
0.0197773 -0.00163739 0.161286 0 0 255
0.0199259 -0.000508897 0.163786 0 0 255
0.0198765 -0.000884046 0.171635 0 0 255
0.019925 -0.00051551 0.127836 0 0 255
0.0193985 -0.00451456 -0.0763463 0 0 255
0.0196555 -0.00256257 -0.158724 0 0 255
0.0193815 -0.00464374 -0.0496868 0 0 255
0.0197324 -0.00197814 0.235676 0 0 255
0.0199425 -0.000382782 0.572616 0 0 255
0.0197956 -0.00149819 0.0731555 0 0 255
0.0197242 -0.00204035 -0.0271857 0 0 255
0.0198316 -0.00122457 0.213585 0 0 255
0.019875 -0.00089555 0.334653 0 0 255
0.0199105 -0.000625488 0.112237 0 0 255
0.0198167 -0.00133789 0.173494 0 0 255
0.01983 -0.00123721 0.362212 0 0 255
0.0194966 -0.00376916 -0.00840764 0 0 255
0.0197321 -0.00198073 0.348366 0 0 255
0.0198923 -0.000764142 0.0410323 0 0 255
0.0197481 -0.00185906 0.121135 0 0 255
0.0199675 -0.000192289 0.334261 0 0 255
0.0196821 -0.00236025 0.0830627 0 0 255
0.0198275 -0.00125627 0.212888 0 0 255
0.019659 -0.00253569 0.070512 0 0 255
0.0196932 -0.00227625 0.307817 0 0 255
0.0197091 -0.00215563 0.283301 0 0 255
0.0199673 -0.000194125 0.29427 0 0 255
0.0195122 -0.00365072 0.0112131 0 0 255
0.0198376 -0.00117934 0.56783 0 0 255
0.0199238 -0.000524279 0.253576 0 0 255
0.0199209 -0.000546712 0.242415 0 0 255
0.0195298 -0.00351745 0.0941704 0 0 255
0.0199295 -0.000481194 0.417769 0 0 255
0.0198144 -0.00135546 0.352749 0 0 255
0.0198609 -0.00100216 0.289327 0 0 255
0.019653 -0.00258121 -0.0238445 0 0 255
0.0195978 -0.00300066 0.239904 0 0 255
0.0197984 -0.00147724 0.443062 0 0 255
0.01982 -0.00131311 -0.080235 0 0 255
0.019465 -0.00400943 0.0201094 0 0 255
0.0197374 -0.00194074 0.0638207 0 0 255
0.0196934 -0.00227494 0.183975 0 0 255
0.0197847 -0.00158099 0.0726714 0 0 255
0.0199482 -0.00033958 -0.147088 0 0 255
0.0196505 -0.00260072 -0.0663781 0 0 255
0.0197816 -0.00160432 0.329754 0 0 255
0.0194316 -0.00426315 0.0133209 0 0 255
0.0197579 -0.00178492 0.252495 0 0 255
0.0194964 -0.00377115 0.107687 0 0 255
0.0195349 -0.00347823 0.136609 0 0 255
0.0196428 -0.00265896 -0.0193185 0 0 255
0.0194005 -0.00449963 -0.12624 0 0 255
0.0195736 -0.00318488 0.210636 0 0 255
0.0197356 -0.00195385 -0.14934 0 0 255
0.0198397 -0.00116353 0.345963 0 0 255
0.0197875 -0.00155962 -0.0208414 0 0 255
0.0194585 -0.0040591 0.0228378 0 0 255
0.0198653 -0.000968606 0.0242942 0 0 255
0.0198373 -0.00118141 0.341573 0 0 255
0.019629 -0.00276359 0.0858036 0 0 255
0.0198031 -0.00144099 0.0988552 0 0 255
0.019906 -0.000659426 0.519544 0 0 255
0.0196916 -0.0022885 -0.109312 0 0 255
0.0199484 -0.000337559 0.35446 0 0 255
0.0198978 -0.000721807 0.133367 0 0 255
0.0199295 -0.000481177 0.39318 0 0 255
0.0197116 -0.00213618 0.127108 0 0 255
0.0198593 -0.00101413 0.546687 0 0 255
0.0198436 -0.00113393 0.128032 0 0 255
0.0199569 -0.000273158 0.2697 0 0 255
0.0197602 -0.00176753 0.479484 0 0 255
0.0199322 -0.000460471 0.186197 0 0 255
0.0199442 -0.000369487 0.240388 0 0 255
0.0195474 -0.00338334 -0.118717 0 0 255
0.0195868 -0.00308429 0.0129204 0 0 255
0.0194208 -0.00434549 -0.150106 0 0 255
0.0195978 -0.00300068 -0.00259457 0 0 255
0.0196459 -0.00263528 0.291062 0 0 255
0.0198235 -0.00128672 0.316513 0 0 255
0.0197769 -0.00164006 0.082111 0 0 255
0.0199192 -0.000559491 0.403935 0 0 255
0.0194736 -0.003944 -0.0540934 0 0 255
0.0196472 -0.00262576 0.282176 0 0 255
0.0197472 -0.00186626 0.132821 0 0 255
0.0199392 -0.00040743 0.565648 0 0 255
0.0194972 -0.00376496 -0.0925741 0 0 255
0.0198567 -0.00103397 0.269849 0 0 255
0.0199451 -0.000362417 0.696807 0 0 255
0.0199325 -0.000458363 0.432125 0 0 255
0.019745 -0.00188245 0.364346 0 0 255
0.0195285 -0.00352745 0.101294 0 0 255
0.0196135 -0.00288148 -0.0612643 0 0 255
0.0199108 -0.000623038 0.0108085 0 0 255
0.0196726 -0.00243256 0.242869 0 0 255
0.0194434 -0.00417341 -0.0458444 0 0 255
0.0199639 -0.000219606 0.731887 0 0 255
0.0198464 -0.00111243 0.447323 0 0 255
0.0198464 -0.00111227 -0.108872 0 0 255
0.0195716 -0.00319986 0.0618586 0 0 255
0.0196059 -0.00293915 0.231209 0 0 255
0.0197213 -0.00206257 0.339123 0 0 255
0.0196917 -0.00228761 -0.0294915 0 0 255
0.0198603 -0.00100696 0.0309067 0 0 255
0.0196901 -0.00230005 0.224516 0 0 255
0.019937 -0.000424386 -0.156951 0 0 255
0.0197878 -0.00155788 -0.0115065 0 0 255
0.0198362 -0.00118981 -0.111425 0 0 255
0.0198265 -0.00126373 0.326229 0 0 255
0.0194292 -0.0042813 -0.129537 0 0 255
0.0199246 -0.000518094 0.325958 0 0 255
0.0197403 -0.00191807 0.109754 0 0 255
0.0195533 -0.00333914 -0.01932 0 0 255
0.0196899 -0.00230147 0.228159 0 0 255
0.0199028 -0.000684414 -0.0796765 0 0 255
0.0193146 -0.0051521 -0.133921 0 0 255
0.0196101 -0.0029077 0.254954 0 0 255
0.0197357 -0.00195347 0.157821 0 0 255
0.0198897 -0.000783776 0.626256 0 0 255
0.0198827 -0.000836371 0.147383 0 0 255
0.0198364 -0.00118871 0.249433 0 0 255
0.019693 -0.00227766 -0.0100528 0 0 255
0.0196969 -0.00224801 0.243389 0 0 255
0.0195809 -0.00312947 0.173199 0 0 255
0.0197623 -0.00175163 0.182735 0 0 255
0.0197667 -0.00171812 0.237297 0 0 255
0.0198593 -0.00101472 0.375259 0 0 255
0.0195355 -0.003474 0.424315 0 0 255
0.0194661 -0.00400094 0.688702 0 0 255
0.0194759 -0.00392634 0.5341 0 0 255
0.0195694 -0.00321624 0.480565 0 0 255
0.0199172 -0.000574647 0.723652 0 0 255
0.0195804 -0.00313272 0.631998 0 0 255
0.0194491 -0.00413011 0.367758 0 0 255
0.0196065 -0.00293499 0.705376 0 0 255
0.0195792 -0.00314191 0.414239 0 0 255
0.0194757 -0.0039285 0.385813 0 0 255
0.0196136 -0.00288066 0.461323 0 0 255
0.0194445 -0.00416489 0.544979 0 0 255
0.01938 -0.00465531 0.499161 0 0 255
0.019405 -0.00446523 0.689811 0 0 255
0.019609 -0.00291556 0.452937 0 0 255
0.0195344 -0.00348263 0.52 0 0 255
0.0195443 -0.00340694 0.317816 0 0 255
0.0195971 -0.00300643 0.753761 0 0 255
0.0197689 -0.00170141 0.636272 0 0 255
0.0193925 -0.00455982 0.764277 0 0 255
0.0198108 -0.00138315 0.765696 0 0 255
0.0193864 -0.00460645 0.71132 0 0 255
0.0197236 -0.0020452 0.671814 0 0 255
0.0195296 -0.00351885 0.531216 0 0 255
0.0195525 -0.00334475 0.579082 0 0 255
0.0195739 -0.00318205 0.577405 0 0 255
0.0195008 -0.0037379 0.664298 0 0 255
0.0195177 -0.00360938 0.745651 0 0 255
0.0196734 -0.00242665 0.511579 0 0 255
0.0193933 -0.00455421 0.530205 0 0 255
0.0196496 -0.00260756 0.608597 0 0 255
0.0198951 -0.000742337 0.75687 0 0 255
0.0193348 -0.00499812 0.57492 0 0 255
0.019791 -0.00153325 0.636362 0 0 255
0.0193181 -0.00512566 0.689869 0 0 255
0.0195713 -0.00320171 0.762504 0 0 255
0.0197222 -0.00205566 0.758615 0 0 255
0.019667 -0.00247489 0.367466 0 0 255
0.0195736 -0.00318445 0.290369 0 0 255
0.0199194 -0.000557876 0.775678 0 0 255
0.0196902 -0.00229878 0.763586 0 0 255
0.0194371 -0.00422178 0.342643 0 0 255
0.0194618 -0.00403352 0.121408 0 0 255
0.0193785 -0.00466622 0.202088 0 0 255
0.0195432 -0.00341575 0.603327 0 0 255
0.019444 -0.00416904 0.782304 0 0 255
0.0198068 -0.00141335 0.719731 0 0 255
0.0193792 -0.00466138 0.505852 0 0 255
0.0197159 -0.00210401 0.545551 0 0 255
0.0195658 -0.003244 0.766718 0 0 255
0.0195448 -0.00340338 0.486764 0 0 255
0.0193184 -0.00512314 0.0386988 0 0 255
0.019945 -0.000363561 0.76659 0 0 255
0.019452 -0.00410851 0.357829 0 0 255
0.0194009 -0.00449643 0.175883 0 0 255
0.0192951 -0.00529994 0.0280953 0 0 255
0.0195566 -0.00331347 0.354898 0 0 255
0.0195843 -0.00310355 0.515895 0 0 255
0.0197078 -0.00216491 0.582211 0 0 255
0.0193452 -0.00491969 0.564122 0 0 255
0.0193614 -0.00479652 0.64859 0 0 255
0.0194938 -0.00379095 0.371016 0 0 255
0.0198169 -0.00133645 0.575711 0 0 255
0.0194462 -0.0041526 0.415084 0 0 255
0.0193836 -0.00462807 0.468861 0 0 255
0.019588 -0.00307494 0.736327 0 0 255
0.0197203 -0.00206992 0.624798 0 0 255
0.0197644 -0.00173505 0.555807 0 0 255
0.0195224 -0.0035738 0.562368 0 0 255
0.0192955 -0.00529684 0.710481 0 0 255
0.0194049 -0.00446568 0.239866 0 0 255
0.0197005 -0.00222039 0.742335 0 0 255
0.0198397 -0.00116326 0.759581 0 0 255
0.0197783 -0.00162965 0.777648 0 0 255
0.0195517 -0.0033506 0.330381 0 0 255
0.019311 -0.00517949 0.129822 0 0 255
0.0193569 -0.00483076 0.512615 0 0 255
0.0198679 -0.000949333 0.648561 0 0 255
0.0197785 -0.00162799 0.660999 0 0 255
0.0194906 -0.00381524 0.280791 0 0 255
0.0193847 -0.00461917 0.417666 0 0 255
0.0196179 -0.00284775 0.641784 0 0 255
0.0193675 -0.00474972 0.374508 0 0 255
0.019346 -0.00491331 0.119258 0 0 255
0.0195216 -0.00357965 0.387774 0 0 255
0.0198134 -0.0013633 0.574272 0 0 255
0.0197784 -0.00162896 0.711729 0 0 255
0.0197934 -0.00151498 0.732207 0 0 255
0.0193904 -0.00457584 0.537121 0 0 255
0.0195874 -0.0030799 0.270158 0 0 255
0.0195847 -0.00310033 0.683288 0 0 255
0.0197634 -0.00174315 0.679353 0 0 255
0.0193514 -0.00487258 0.538161 0 0 255
0.0195373 -0.00346009 0.385593 0 0 255
0.0194272 -0.00429696 0.600825 0 0 255
0.0193163 -0.00513898 0.490345 0 0 255
0.0197329 -0.00197462 0.609394 0 0 255
0.0193979 -0.00451893 0.717885 0 0 255
0.019417 -0.00437414 0.581017 0 0 255
0.019511 -0.00366004 0.64617 0 0 255
0.0194217 -0.00433866 0.334298 0 0 255
0.0197325 -0.00197754 0.539426 0 0 255
0.0194035 -0.00447648 0.347769 0 0 255
0.0195297 -0.00351777 0.256104 0 0 255
0.0194526 -0.00410404 0.365829 0 0 255
0.0196209 -0.00282536 0.458909 0 0 255
0.0195584 -0.00329995 0.651928 0 0 255
0.0198802 -0.000856002 0.73798 0 0 255
0.0195667 -0.00323726 0.351252 0 0 255
0.0194603 -0.00404527 0.38485 0 0 255
0.01938 -0.00465486 0.445281 0 0 255
0.0194659 -0.0040026 0.50487 0 0 255
0.0193373 -0.00497953 0.34751 0 0 255
0.0195675 -0.00323055 0.398799 0 0 255
0.0194989 -0.00375179 0.562785 0 0 255
0.0195045 -0.00370977 0.325956 0 0 255
0.0196661 -0.00248183 0.468028 0 0 255
0.0197141 -0.00211734 0.473825 0 0 255
0.0194378 -0.00421573 0.297477 0 0 255
0.0193165 -0.00513719 0.682271 0 0 255
0.0194455 -0.00415741 0.561053 0 0 255
0.0199165 -0.000580144 0.732274 0 0 255
0.0195714 -0.00320161 0.629677 0 0 255
0.0194813 -0.00388571 0.423922 0 0 255
0.0197116 -0.0021361 0.685626 0 0 255
0.0197019 -0.00220993 0.657392 0 0 255
0.0192995 -0.00526673 0.290237 0 0 255
0.0194236 -0.00432394 0.627006 0 0 255
0.0193804 -0.00465215 0.227878 0 0 255
0.0195108 -0.00366126 0.573553 0 0 255
0.0193435 -0.00493224 0.0994121 0 0 255
0.019443 -0.00417696 0.577466 0 0 255
0.0197843 -0.00158433 0.65332 0 0 255
0.0198409 -0.00115457 0.696974 0 0 255
0.0194424 -0.00418123 0.0560647 0 0 255
0.0193603 -0.00480486 0.0909126 0 0 255
0.01977 -0.00169306 0.701536 0 0 255
0.0193192 -0.00511702 0.69248 0 0 255
0.0193271 -0.00505713 0.250081 0 0 255
0.0194597 -0.00404986 0.499483 0 0 255
0.0196757 -0.00240904 0.678571 0 0 255
0.0193116 -0.00517469 -0.00127674 0 0 255
0.0194349 -0.00423829 0.0773721 0 0 255
0.0194919 -0.00380489 0.244271 0 0 255
0.0193895 -0.00458267 0.405752 0 0 255
0.0196515 -0.00259314 0.516553 0 0 255
0.0192975 -0.00528158 0.451651 0 0 255
0.0193002 -0.00526111 0.464762 0 0 255
0.019738 -0.00193557 0.597662 0 0 255
0.019545 -0.00340192 0.623558 0 0 255
0.019358 -0.00482211 0.31852 0 0 255
0.0196579 -0.00254433 0.483514 0 0 255
0.0194411 -0.0041914 0.171511 0 0 255
0.0194864 -0.00384693 0.616441 0 0 255
0.0197725 -0.00167347 0.587718 0 0 255
0.0193359 -0.0049902 0.125242 0 0 255
0.0196736 -0.00242518 0.686378 0 0 255
0.0193385 -0.00497024 0.690437 0 0 255
0.0193878 -0.00459594 0.373835 0 0 255
0.0194007 -0.00449764 0.6249 0 0 255
0.0193931 -0.00455584 0.284005 0 0 255
0.0199176 -0.000571413 0.774577 0 0 255
0.019515 -0.00362982 0.396515 0 0 255
0.0194875 -0.00383895 0.162063 0 0 255
0.0193453 -0.0049184 0.228876 0 0 255
0.0193219 -0.00509665 0.55401 0 0 255
0.0198901 -0.000780735 0.749114 0 0 255
0.0194106 -0.00442269 0.0859517 0 0 255
0.0193901 -0.00457859 0.292611 0 0 255
0.0193319 -0.00502051 0.53454 0 0 255
0.0195996 -0.00298747 0.38242 0 0 255
0.0198489 -0.00109344 0.714074 0 0 255
0.0193522 -0.00486651 0.508929 0 0 255
0.0193245 -0.0050769 0.207275 0 0 255
0.0193513 -0.00487329 0.289949 0 0 255
0.0193091 -0.00519369 0.145187 0 0 255
0.0193514 -0.00487205 0.265043 0 0 255
0.0197292 -0.00200282 0.615913 0 0 255
0.0194283 -0.00428797 0.582182 0 0 255
0.019414 -0.0043969 0.752199 0 0 255
0.0193324 -0.00501676 0.138935 0 0 255
0.0197013 -0.00221458 0.627084 0 0 255
0.0193738 -0.0047021 0.580215 0 0 255
0.0194123 -0.00441004 0.628862 0 0 255
0.019423 -0.00432856 0.39262 0 0 255
0.019379 -0.00466271 0.0128734 0 0 255
0.0197585 -0.00177992 0.492241 0 0 255
0.0193491 -0.00488972 -0.0297871 0 0 255
0.0194342 -0.00424318 0.328728 0 0 255
0.0195076 -0.00368569 0.192682 0 0 255
0.0199008 -0.000699038 0.747818 0 0 255
0.0194009 -0.0044963 0.550347 0 0 255
0.0195179 -0.0036074 0.310524 0 0 255
0.0194874 -0.00383937 0.705347 0 0 255
0.019372 -0.00471563 0.521692 0 0 255
0.0196174 -0.00285184 0.376453 0 0 255
0.0193287 -0.00504446 0.534378 0 0 255
0.0196606 -0.00252368 0.614419 0 0 255
0.0197517 -0.00183148 0.78731 0 0 255
0.0193561 -0.00483667 0.151332 0 0 255
0.0193224 -0.0050924 0.060366 0 0 255
0.0195982 -0.00299793 0.76554 0 0 255
0.0194274 -0.00429543 0.166529 0 0 255
0.019707 -0.00217169 0.458756 0 0 255
0.019335 -0.00499733 0.474359 0 0 255
0.0194235 -0.00432502 0.621745 0 0 255
0.0196633 -0.00250288 0.520244 0 0 255
0.0193942 -0.00454751 0.46669 0 0 255
0.0197032 -0.00220026 0.472462 0 0 255
0.0198791 -0.000864041 0.717653 0 0 255
0.019434 -0.00424462 0.777544 0 0 255
0.0193219 -0.0050964 0.6601 0 0 255
0.0193454 -0.00491814 0.32942 0 0 255
0.0194323 -0.00425807 0.322726 0 0 255
0.0194609 -0.00404054 0.748344 0 0 255
0.0193562 -0.00483573 0.648621 0 0 255
0.0193013 -0.00525259 0.130349 0 0 255
0.0197398 -0.00192255 0.699844 0 0 255
0.0193568 -0.00483164 0.736848 0 0 255
0.0195508 -0.00335804 0.366715 0 0 255
0.0195871 -0.00308217 0.262025 0 0 255
0.0196099 -0.0029089 0.742721 0 0 255
0.0193124 -0.00516836 0.641076 0 0 255
0.019406 -0.00445768 0.290953 0 0 255
0.0195195 -0.00359583 0.479676 0 0 255
0.0195348 -0.0034792 0.529781 0 0 255
0.019592 -0.00304473 0.339163 0 0 255
0.0193997 -0.00450573 0.142843 0 0 255
0.0198082 -0.00140248 0.620509 0 0 255
0.019395 -0.00454106 0.647046 0 0 255
0.0199118 -0.000615947 0.703082 0 0 255
0.0194071 -0.00444951 0.375829 0 0 255
0.0198848 -0.000820804 0.679834 0 0 255
0.019533 -0.00349323 0.43543 0 0 255
0.0194303 -0.00427297 0.286615 0 0 255
0.0194368 -0.00422362 0.0852751 0 0 255
0.0194644 -0.00401404 0.575045 0 0 255
0.0195421 -0.00342373 0.347358 0 0 255
0.0195874 -0.00308004 0.46785 0 0 255
0.0197803 -0.00161417 0.590365 0 0 255
0.0194123 -0.00440993 0.297449 0 0 255
0.0195315 -0.00350407 0.368337 0 0 255
0.0194523 -0.00410616 0.642479 0 0 255
0.01967 -0.00245268 0.386144 0 0 255
0.0195339 -0.00348623 0.225599 0 0 255
0.0194808 -0.00388932 0.499733 0 0 255
0.0196293 -0.00276142 0.367293 0 0 255
0.0194486 -0.00413426 0.470504 0 0 255
0.0194127 -0.00440668 0.120198 0 0 255
0.0193548 -0.00484684 0.32344 0 0 255
0.0194055 -0.00446138 0.301129 0 0 255
0.0195007 -0.0037382 0.431853 0 0 255
0.0195505 -0.00335989 0.270096 0 0 255
0.0193041 -0.00523168 0.0300633 0 0 255
0.0197633 -0.00174388 0.710418 0 0 255
0.0194993 -0.00374912 0.252908 0 0 255
0.0197243 -0.00203997 0.75369 0 0 255
0.0194791 -0.00390241 0.64678 0 0 255
0.0194296 -0.00427873 0.256967 0 0 255
0.0196013 -0.0029741 0.683105 0 0 255
0.0197656 -0.00172611 0.751424 0 0 255
0.0195111 -0.00365965 0.311768 0 0 255
0.0193231 -0.00508754 0.0130016 0 0 255
0.0193319 -0.00502064 -0.0631824 0 0 255
0.0193035 -0.00523645 0.568626 0 0 255
0.0195286 -0.00352657 0.685496 0 0 255
0.0196897 -0.0023028 0.671422 0 0 255
0.0197086 -0.00215919 0.582478 0 0 255
0.0198539 -0.0010556 0.670074 0 0 255
0.0197738 -0.00166354 0.657226 0 0 255
0.019684 -0.00234594 0.698158 0 0 255
0.0196609 -0.0025212 0.438231 0 0 255
0.0193397 -0.00496126 -0.0452415 0 0 255
0.0195375 -0.00345861 0.739029 0 0 255
0.0196549 -0.00256677 0.483558 0 0 255
0.0194518 -0.00410982 0.155406 0 0 255
0.0198725 -0.000914396 0.690917 0 0 255
0.0196586 -0.0025393 0.701668 0 0 255
0.0193321 -0.00501896 0.520473 0 0 255
0.0193065 -0.00521377 0.173559 0 0 255
0.019397 -0.00452589 0.534472 0 0 255
0.0193022 -0.00524579 0.339438 0 0 255
0.0196525 -0.00258502 0.515246 0 0 255
0.0193476 -0.00490099 0.740259 0 0 255
0.0197258 -0.00202863 0.669734 0 0 255
0.0198616 -0.000996958 0.645488 0 0 255
0.0196189 -0.00284038 0.775542 0 0 255
0.0194637 -0.00401955 0.165084 0 0 255
0.019462 -0.00403192 0.49751 0 0 255
0.0196018 -0.00297006 0.704638 0 0 255
0.0196355 -0.00271439 0.365697 0 0 255
0.0193849 -0.00461776 0.783973 0 0 255
0.0193108 -0.00518042 -0.127398 0 0 255
0.019358 -0.00482209 0.0795038 0 0 255
0.0196124 -0.00289001 0.485777 0 0 255
0.0193722 -0.00471425 0.0317814 0 0 255
0.0194324 -0.00425681 0.447992 0 0 255
0.0197241 -0.0020413 0.720302 0 0 255
0.0196011 -0.00297567 0.587463 0 0 255
0.0194544 -0.00409032 0.664674 0 0 255
0.0193082 -0.00520043 0.4256 0 0 255
0.0193153 -0.00514641 0.787621 0 0 255
0.0193166 -0.00513671 0.479057 0 0 255
0.0193976 -0.00452177 0.622274 0 0 255
0.0194376 -0.0042177 0.458292 0 0 255
0.0195944 -0.00302648 0.489735 0 0 255
0.0194696 -0.00397431 0.551407 0 0 255
0.0194374 -0.00421907 0.0818423 0 0 255
0.0195548 -0.00332726 0.557642 0 0 255
0.0193082 -0.00520064 0.241519 0 0 255
0.019358 -0.00482198 0.299587 0 0 255
0.0193392 -0.00496515 0.67219 0 0 255
0.0194574 -0.00406746 0.692339 0 0 255
0.019295 -0.00530063 0.759439 0 0 255
0.0193933 -0.00455374 0.70329 0 0 255
0.0196703 -0.00244998 0.434063 0 0 255
0.019342 -0.00494365 0.356229 0 0 255
0.019366 -0.00476136 0.210195 0 0 255
0.0196581 -0.00254276 0.633483 0 0 255
0.0193193 -0.0051161 -0.0619215 0 0 255
0.0197124 -0.00213048 0.77724 0 0 255
0.0193047 -0.00522745 0.385749 0 0 255
0.0193143 -0.00515384 0.264351 0 0 255
0.0194739 -0.00394179 0.771109 0 0 255
0.0193004 -0.00525953 -0.114975 0 0 255
0.0193606 -0.00480232 0.568151 0 0 255
0.0196407 -0.0026748 0.702552 0 0 255
0.0193632 -0.00478251 0.717998 0 0 255
0.0193168 -0.00513556 0.18302 0 0 255
0.0193525 -0.00486388 0.496069 0 0 255
0.0193267 -0.00505979 0.277513 0 0 255
0.019643 -0.00265778 0.445246 0 0 255
0.019555 -0.00332573 0.381542 0 0 255
0.019876 -0.00088746 0.656123 0 0 255
0.019339 -0.0049664 0.478309 0 0 255
0.0193225 -0.00509187 0.103327 0 0 255
0.019473 -0.00394908 0.508959 0 0 255
0.0194891 -0.00382615 0.148567 0 0 255
0.0194055 -0.00446129 0.401777 0 0 255
0.0194804 -0.00389247 0.378188 0 0 255
0.0197101 -0.0021476 0.692272 0 0 255
0.0198621 -0.000993413 0.761994 0 0 255
0.0193177 -0.00512831 0.24619 0 0 255
0.0196194 -0.00283693 0.294893 0 0 255
0.019408 -0.00444249 0.640702 0 0 255
0.0196302 -0.00275432 0.637232 0 0 255
0.0197927 -0.00152031 0.699981 0 0 255
0.0194412 -0.00419047 0.4634 0 0 255
0.0193192 -0.00511696 0.15498 0 0 255
0.0196028 -0.00296277 0.5144 0 0 255
0.0193623 -0.00478922 -0.0190796 0 0 255
0.0194563 -0.00407553 0.629002 0 0 255
0.0193759 -0.00468615 -0.0296875 0 0 255
0.0195443 -0.003407 0.621946 0 0 255
0.0195844 -0.00310231 0.283547 0 0 255
0.0194486 -0.00413382 0.195964 0 0 255
0.0194689 -0.00397975 0.647807 0 0 255
0.0195859 -0.00309145 0.684336 0 0 255
0.019653 -0.00258134 0.626119 0 0 255
0.019426 -0.0043061 0.382254 0 0 255
0.0193694 -0.00473547 -0.0238294 0 0 255
0.0194046 -0.00446863 0.12098 0 0 255
0.0197102 -0.00214703 0.634278 0 0 255
0.0194399 -0.00420052 0.453334 0 0 255
0.0193423 -0.00494173 0.626704 0 0 255
0.0195656 -0.00324537 0.746059 0 0 255
0.019473 -0.00394904 0.62168 0 0 255
0.0193575 -0.00482633 0.298398 0 0 255
0.0194448 -0.00416278 0.741301 0 0 255
0.0197221 -0.00205683 0.464249 0 0 255
0.0194607 -0.00404189 0.670686 0 0 255
0.0197779 -0.00163264 0.685406 0 0 255
0.019508 -0.00368296 0.573647 0 0 255
0.0195212 -0.00358238 0.506302 0 0 255
0.0193233 -0.00508601 0.704118 0 0 255
0.0197808 -0.00161086 0.640057 0 0 255
0.0195845 -0.00310184 0.302919 0 0 255
0.0194571 -0.00406959 0.75259 0 0 255
0.019388 -0.00459463 0.0818852 0 0 255
0.019415 -0.00438951 0.00964583 0 0 255
0.0194781 -0.00391034 0.218833 0 0 255
0.0195784 -0.00314812 0.404306 0 0 255
0.019735 -0.00195887 0.715091 0 0 255
0.0197619 -0.00175465 0.499603 0 0 255
0.019562 -0.00327279 0.693174 0 0 255
0.0195173 -0.00361258 0.537566 0 0 255
0.0193009 -0.0052563 0.334352 0 0 255
0.0197316 -0.00198472 0.487958 0 0 255
0.0194096 -0.00443032 0.0193059 0 0 255
0.019504 -0.00371332 0.56307 0 0 255
0.0193111 -0.00517886 0.606103 0 0 255
0.0194752 -0.00393228 0.150376 0 0 255
0.0199016 -0.000693301 0.724685 0 0 255
0.0193511 -0.00487465 0.31143 0 0 255
0.0196347 -0.00272075 0.470737 0 0 255
0.0193902 -0.00457746 0.262568 0 0 255
0.0197574 -0.0017887 0.673607 0 0 255
0.0195507 -0.00335885 0.557447 0 0 255
0.0195058 -0.00369961 0.66648 0 0 255
0.0194966 -0.00376935 0.193179 0 0 255
0.0195653 -0.00324758 0.778667 0 0 255
0.0197941 -0.00151002 0.672721 0 0 255
0.019679 -0.00238373 0.59537 0 0 255
0.0194059 -0.0044585 0.725157 0 0 255
0.0195537 -0.00333578 0.250693 0 0 255
0.019392 -0.00456412 0.314311 0 0 255
0.0196201 -0.00283169 0.492793 0 0 255
0.0195867 -0.003085 0.518329 0 0 255
0.0193859 -0.00461041 0.416778 0 0 255
0.0193724 -0.00471303 -0.00952851 0 0 255
0.019647 -0.00262709 0.710978 0 0 255
0.0193709 -0.00472445 0.447065 0 0 255
0.0196954 -0.00225971 0.740385 0 0 255
0.0194179 -0.0043675 0.753422 0 0 255
0.0193426 -0.00493919 0.098869 0 0 255
0.0193407 -0.0049538 0.364822 0 0 255
0.0194441 -0.00416813 0.362313 0 0 255
0.0195366 -0.0034658 0.204263 0 0 255
0.0193359 -0.00498984 0.586649 0 0 255
0.0194663 -0.00399946 0.585017 0 0 255
0.0195725 -0.00319278 0.575412 0 0 255
0.0193527 -0.0048628 0.353393 0 0 255
0.0198544 -0.00105147 0.758479 0 0 255
0.0193396 -0.00496198 0.41079 0 0 255
0.0197981 -0.00147941 0.628086 0 0 255
0.0193153 -0.00514672 0.287503 0 0 255
0.0194255 -0.00430989 0.0933037 0 0 255
0.0193221 -0.00509474 0.477669 0 0 255
0.0197645 -0.00173429 0.733615 0 0 255
0.0196333 -0.00273078 0.363955 0 0 255
0.0193567 -0.00483174 0.11112 0 0 255
0.0197007 -0.00221929 0.433447 0 0 255
0.0193068 -0.00521103 0.471078 0 0 255
0.0196734 -0.00242684 0.672064 0 0 255
0.0194316 -0.00426315 0.771872 0 0 255
0.0195071 -0.00368937 0.783388 0 0 255
0.0196276 -0.00277477 0.661885 0 0 255
0.0194517 -0.00411044 0.563827 0 0 255
0.0194405 -0.00419524 0.306761 0 0 255
0.0195082 -0.00368124 0.530881 0 0 255
0.0194812 -0.00388615 0.236723 0 0 255
0.0193672 -0.0047522 0.462704 0 0 255
0.0195583 -0.00330056 0.706643 0 0 255
0.0195295 -0.00351927 0.514226 0 0 255
0.0193997 -0.00450581 0.032624 0 0 255
0.0197091 -0.00215521 0.500416 0 0 255
0.01988 -0.000856895 0.671399 0 0 255
0.0193217 -0.00509778 0.336958 0 0 255
0.0195831 -0.00311212 0.679523 0 0 255
0.0193507 -0.00487734 0.151913 0 0 255
0.0196808 -0.00237054 0.675146 0 0 255
0.0195229 -0.00356959 0.254598 0 0 255
0.0195591 -0.00329497 0.59374 0 0 255
0.019395 -0.00454117 -0.0154989 0 0 255
0.0196 -0.00298418 0.465323 0 0 255
0.0195168 -0.00361615 0.644809 0 0 255
0.0194538 -0.00409433 0.187796 0 0 255
0.0197376 -0.00193901 0.726933 0 0 255
0.0197011 -0.00221644 0.41156 0 0 255
0.019575 -0.00317364 0.289648 0 0 255
0.0195546 -0.00332905 0.237714 0 0 255
0.0194559 -0.00407837 0.690991 0 0 255
0.0193633 -0.00478216 0.456239 0 0 255
0.0193102 -0.00518521 0.64118 0 0 255
0.0193893 -0.00458425 0.747229 0 0 255
0.0194443 -0.00416635 0.258938 0 0 255
0.0198276 -0.00125519 0.674872 0 0 255
0.0193365 -0.0049852 0.0786514 0 0 255
0.0194102 -0.00442537 0.233996 0 0 255
0.019679 -0.00238373 0.515423 0 0 255
0.019618 -0.00284768 0.592551 0 0 255
0.0193738 -0.004702 0.115248 0 0 255
0.0197708 -0.00168656 0.626963 0 0 255
0.019799 -0.00147283 0.738809 0 0 255
0.0194425 -0.00418044 0.287338 0 0 255
0.01942 -0.00435162 0.141575 0 0 255
0.0194143 -0.00439451 0.0255543 0 0 255
0.0197184 -0.00208492 0.617178 0 0 255
0.0195464 -0.00339148 0.202089 0 0 255
0.0195542 -0.00333168 0.43388 0 0 255
0.0193486 -0.00489328 0.206784 0 0 255
0.0194877 -0.00383701 0.631536 0 0 255
0.0193887 -0.00458868 0.673022 0 0 255
0.0192969 -0.0052865 0.195848 0 0 255
0.0195408 -0.00343395 0.64663 0 0 255
0.0193283 -0.00504821 0.246171 0 0 255
0.0194034 -0.00447716 0.57542 0 0 255
0.0198648 -0.000972734 0.720489 0 0 255
0.0193389 -0.00496735 0.472855 0 0 255
0.0198158 -0.00134489 0.732071 0 0 255
0.0196268 -0.0027804 0.521455 0 0 255
0.0196041 -0.0029531 0.470041 0 0 255
0.0194607 -0.00404184 0.261298 0 0 255
0.0198269 -0.00126048 0.652988 0 0 255
0.0194316 -0.00426337 0.64437 0 0 255
0.0193211 -0.00510236 0.630061 0 0 255
0.0194656 -0.00400526 0.138259 0 0 255
0.0193036 -0.0052353 0.287901 0 0 255
0.0195406 -0.00343563 0.767533 0 0 255
0.0196633 -0.00250357 0.775015 0 0 255
0.0193799 -0.00465556 0.193703 0 0 255
0.019826 -0.00126767 0.632566 0 0 255
0.0195584 -0.00329973 0.563479 0 0 255
0.0194449 -0.0041618 0.406721 0 0 255
0.0194549 -0.00408604 0.155846 0 0 255
0.0194307 -0.00427001 0.260592 0 0 255
0.0196558 -0.00256009 0.60594 0 0 255
0.0197353 -0.00195643 0.662689 0 0 255
0.0193729 -0.00470944 0.108203 0 0 255
0.0194478 -0.00414003 0.328251 0 0 255
0.0194211 -0.00434279 0.458901 0 0 255
0.0194922 -0.003803 0.652466 0 0 255
0.0194348 -0.00423852 0.327006 0 0 255
0.0193337 -0.00500679 -0.0178454 0 0 255
0.0194221 -0.00433508 0.56406 0 0 255
0.0196923 -0.00228316 0.406031 0 0 255
0.0194061 -0.00445662 0.449096 0 0 255
0.0197594 -0.00177308 0.774873 0 0 255
0.0193796 -0.00465849 0.724351 0 0 255
0.0193747 -0.00469532 0.435364 0 0 255
0.0193048 -0.0052266 0.546808 0 0 255
0.019475 -0.00393351 0.629353 0 0 255
0.0194054 -0.00446255 0.151116 0 0 255
0.0196376 -0.00269882 0.690485 0 0 255
0.0194004 -0.00450019 0.567583 0 0 255
0.0193046 -0.00522792 0.625051 0 0 255
0.0197722 -0.00167606 0.643548 0 0 255
0.0192959 -0.00529423 -0.107273 0 0 255
0.0194779 -0.00391145 0.263287 0 0 255
0.0195302 -0.00351412 0.788253 0 0 255
0.0195554 -0.00332316 0.464045 0 0 255
0.0193734 -0.00470515 0.603818 0 0 255
0.019618 -0.00284705 0.492226 0 0 255
0.0194887 -0.00382933 0.510023 0 0 255
0.0194355 -0.00423372 0.134121 0 0 255
0.019452 -0.00410799 0.658825 0 0 255
0.0192953 -0.00529855 0.356305 0 0 255
0.0194969 -0.00376754 0.279705 0 0 255
0.0198181 -0.00132745 0.728602 0 0 255
0.0197905 -0.00153726 0.688441 0 0 255
0.0193628 -0.0047856 0.361743 0 0 255
0.0198761 -0.000886655 0.686778 0 0 255
0.0197599 -0.00176971 0.615605 0 0 255
0.0194034 -0.00447712 0.189119 0 0 255
0.0198693 -0.000938615 0.675676 0 0 255
0.0194429 -0.00417751 0.434301 0 0 255
0.0192962 -0.00529139 0.786845 0 0 255
0.0193082 -0.0052008 0.0667623 0 0 255
0.0195464 -0.00339131 0.782912 0 0 255
0.019763 -0.00174601 0.625119 0 0 255
0.0195107 -0.0036625 0.189146 0 0 255
0.0195069 -0.00369103 0.628446 0 0 255
0.0197928 -0.00151941 0.737809 0 0 255
0.0197075 -0.00216746 0.454045 0 0 255
0.019784 -0.00158675 0.686919 0 0 255
0.0197071 -0.00217044 0.451061 0 0 255
0.0197301 -0.00199581 0.599458 0 0 255
0.0198138 -0.00135981 0.744289 0 0 255
0.019535 -0.00347752 0.301516 0 0 255
0.0196263 -0.00278465 0.726461 0 0 255
0.0196168 -0.00285624 0.745141 0 0 255
0.019352 -0.00486818 0.35069 0 0 255
0.0196596 -0.00253133 0.476102 0 0 255
0.0195166 -0.00361731 0.751606 0 0 255
0.0197564 -0.00179602 0.676607 0 0 255
0.0197016 -0.00221244 0.682456 0 0 255
0.0194063 -0.00445548 0.0820635 0 0 255
0.0194589 -0.00405609 0.472066 0 0 255
0.0193894 -0.00458364 0.113884 0 0 255
0.0193091 -0.00519352 0.58781 0 0 255
0.019621 -0.00282484 0.404076 0 0 255
0.019301 -0.00525548 0.225917 0 0 255
0.0193312 -0.00502575 0.00620736 0 0 255
0.0196114 -0.00289767 0.463763 0 0 255
0.019309 -0.00519447 0.181066 0 0 255
0.0193592 -0.00481286 0.131903 0 0 255
0.019348 -0.00489801 0.180679 0 0 255
0.0194466 -0.00414912 0.442137 0 0 255
0.0195869 -0.00308356 0.297441 0 0 255
0.0194251 -0.00431247 0.242755 0 0 255
0.0197958 -0.00149661 0.566888 0 0 255
0.0193862 -0.00460828 0.741551 0 0 255
0.0195222 -0.00357523 0.377855 0 0 255
0.0195819 -0.00312117 0.539372 0 0 255
0.0199006 -0.000700609 0.776888 0 0 255
0.0194682 -0.00398493 0.450772 0 0 255
0.0194759 -0.00392674 0.267906 0 0 255
0.019544 -0.00340959 0.591338 0 0 255
0.0193198 -0.00511213 0.762597 0 0 255
0.019618 -0.00284722 0.670782 0 0 255
0.019768 -0.00170762 0.592385 0 0 255
0.0196271 -0.00277806 0.750577 0 0 255
0.0195987 -0.00299414 0.777069 0 0 255
0.0192981 -0.0052772 0.577924 0 0 255
0.0194042 -0.00447169 0.238048 0 0 255
0.0198621 -0.000993104 0.652932 0 0 255
0.0195263 -0.00354385 0.436184 0 0 255
0.0195866 -0.0030855 0.446527 0 0 255
0.0194039 -0.00447391 0.464931 0 0 255
0.019416 -0.00438186 0.0343765 0 0 255
0.0193657 -0.00476377 0.153144 0 0 255
0.0196728 -0.00243142 0.59058 0 0 255
0.01963 -0.00275656 0.314541 0 0 255
0.0196445 -0.0026462 0.507845 0 0 255
0.01938 -0.00465489 0.0571379 0 0 255
0.019394 -0.00454892 0.672315 0 0 255
0.0194263 -0.00430336 0.246449 0 0 255
0.0193826 -0.00463557 0.525711 0 0 255
0.0194717 -0.00395844 0.772161 0 0 255
0.0196014 -0.00297361 0.36192 0 0 255
0.0194566 -0.0040732 0.506712 0 0 255
0.0194016 -0.0044908 0.76052 0 0 255
0.0193058 -0.00521899 0.083321 0 0 255
0.0196476 -0.00262253 0.450818 0 0 255
0.0194926 -0.00379953 0.269121 0 0 255
0.019359 -0.00481481 0.319905 0 0 255
0.0193964 -0.00453048 -0.0172446 0 0 255
0.0194273 -0.00429608 0.767988 0 0 255
0.0193173 -0.00513108 -0.111718 0 0 255
0.0193451 -0.00492005 0.506577 0 0 255
0.019534 -0.00348516 0.719634 0 0 255
0.0194035 -0.00447676 0.657252 0 0 255
0.0196164 -0.00285965 0.683276 0 0 255
0.019305 -0.00522516 0.571482 0 0 255
0.0195594 -0.00329266 0.669762 0 0 255
0.0193964 -0.00453076 0.431348 0 0 255
0.0197703 -0.00169045 0.763121 0 0 255
0.0196757 -0.00240926 0.732268 0 0 255
0.0197276 -0.00201522 0.486541 0 0 255
0.0197112 -0.00213937 0.583138 0 0 255
0.0194463 -0.00415159 0.777083 0 0 255
0.0196453 -0.00263985 0.713118 0 0 255
0.0194105 -0.00442351 0.235145 0 0 255
0.019542 -0.00342484 0.326037 0 0 255
0.0193879 -0.0045952 0.393382 0 0 255
0.0195591 -0.0032948 0.551387 0 0 255
0.0196165 -0.00285871 0.719362 0 0 255
0.0193857 -0.00461186 0.349159 0 0 255
0.0198262 -0.00126603 0.684339 0 0 255
0.0196556 -0.00256196 0.679211 0 0 255
0.0193315 -0.00502339 0.0653625 0 0 255
0.0195824 -0.00311778 0.280271 0 0 255
0.019311 -0.0051796 0.707943 0 0 255
0.0195414 -0.00342897 0.211669 0 0 255
0.0194001 -0.00450281 0.289665 0 0 255
0.0193372 -0.00497999 0.452572 0 0 255
0.0195015 -0.00373201 0.727083 0 0 255
0.0193309 -0.0050282 0.436842 0 0 255
0.0197656 -0.00172645 0.626697 0 0 255
0.0193997 -0.00450574 0.538447 0 0 255
0.0197795 -0.00162044 0.540783 0 0 255
0.0195371 -0.00346202 0.700735 0 0 255
0.0194691 -0.0039787 0.202673 0 0 255
0.0193623 -0.0047898 0.788651 0 0 255
0.0195887 -0.00307021 0.623572 0 0 255
0.0193007 -0.00525773 -0.110845 0 0 255
0.0193656 -0.00476463 0.543158 0 0 255
0.0193373 -0.00497978 0.183984 0 0 255
0.019399 -0.00451055 0.505248 0 0 255
0.0195606 -0.00328351 0.421341 0 0 255
0.0194864 -0.00384712 0.51774 0 0 255
0.0193703 -0.00472894 -0.0521925 0 0 255
0.0195825 -0.00311703 0.569167 0 0 255
0.019417 -0.00437434 0.394322 0 0 255
0.0195105 -0.00366356 0.426191 0 0 255
0.0195376 -0.00345817 0.488039 0 0 255
0.0193492 -0.00488944 0.565197 0 0 255
0.0193078 -0.00520374 0.186 0 0 255
0.019497 -0.00376669 0.494708 0 0 255
0.0195801 -0.00313489 0.64856 0 0 255
0.0195084 -0.00367987 0.1583 0 0 255
0.0195092 -0.0036734 0.442383 0 0 255
0.0194518 -0.00410966 0.785963 0 0 255
0.0193939 -0.00454929 0.545855 0 0 255
0.0195415 -0.0034281 0.249366 0 0 255
0.019329 -0.00504284 0.34536 0 0 255
0.019652 -0.00258914 0.678792 0 0 255
0.0196776 -0.00239461 0.397835 0 0 255
0.0195868 -0.00308411 0.378622 0 0 255
0.0193307 -0.00502972 0.61063 0 0 255
0.0193197 -0.00511306 -0.0573614 0 0 255
0.0194132 -0.00440264 0.339892 0 0 255
0.0194136 -0.0044001 0.553858 0 0 255
0.0194863 -0.00384794 0.639886 0 0 255
0.0194681 -0.00398583 0.625597 0 0 255
0.019429 -0.00428317 0.621057 0 0 255
0.0195085 -0.00367944 0.239671 0 0 255
0.0194386 -0.00421021 0.387972 0 0 255
0.0194755 -0.00392957 0.416582 0 0 255
0.0194205 -0.00434774 0.696883 0 0 255
0.0195482 -0.0033778 0.687702 0 0 255
0.0195018 -0.00373013 0.673594 0 0 255
0.019393 -0.00455654 0.254771 0 0 255
0.019321 -0.00510331 0.377263 0 0 255
0.0194444 -0.00416635 0.538931 0 0 255
0.0193524 -0.0048646 0.586477 0 0 255
0.0195108 -0.0036614 0.446461 0 0 255
0.0195596 -0.00329117 0.432234 0 0 255
0.0194473 -0.00414399 0.75308 0 0 255
0.0194807 -0.00389048 0.553825 0 0 255
0.019632 -0.00274063 0.731169 0 0 255
0.0194885 -0.00383135 0.64645 0 0 255
0.0193151 -0.00514817 0.131043 0 0 255
0.0196635 -0.00250136 0.535396 0 0 255
0.0199238 -0.000524446 0.720033 0 0 255
0.0196629 -0.00250592 0.529237 0 0 255
0.0197067 -0.0021739 0.44012 0 0 255
0.0195138 -0.00363905 0.316869 0 0 255
0.0193392 -0.00496497 0.703195 0 0 255
0.0197128 -0.00212731 0.781219 0 0 255
0.0195558 -0.00332017 0.372129 0 0 255
0.0196718 -0.00243886 0.482789 0 0 255
0.0195642 -0.0032561 0.701957 0 0 255
0.0194373 -0.00421958 0.506987 0 0 255
0.0193592 -0.00481322 0.779517 0 0 255
0.0197017 -0.0022113 0.739261 0 0 255
0.0194862 -0.0038485 0.49078 0 0 255
0.0194024 -0.00448473 0.131278 0 0 255
0.0193792 -0.00466153 0.64547 0 0 255
0.0193994 -0.00450743 0.193009 0 0 255
0.0193044 -0.00522971 0.134985 0 0 255
0.0194024 -0.00448535 0.727891 0 0 255
0.0195511 -0.00335584 0.498653 0 0 255
0.0195262 -0.00354434 0.621149 0 0 255
0.0195219 -0.00357767 0.598239 0 0 255
0.0194185 -0.00436273 0.147903 0 0 255
0.0194514 -0.00411286 0.292743 0 0 255
0.0197221 -0.00205688 0.703544 0 0 255
0.0193243 -0.00507805 0.44812 0 0 255
0.0193171 -0.00513319 -0.0352715 0 0 255
0.0195249 -0.00355451 0.430201 0 0 255
0.019518 -0.00360701 0.238909 0 0 255
0.019359 -0.00481484 0.46194 0 0 255
0.0193838 -0.00462623 0.0611196 0 0 255
0.0195919 -0.00304528 0.329863 0 0 255
0.0193391 -0.00496573 0.64212 0 0 255
0.0194148 -0.00439048 0.631991 0 0 255
0.0197945 -0.00150653 0.566103 0 0 255
0.0193741 -0.00469985 0.036173 0 0 255
