ply
format ascii 1.0
comment Created by Open3D
element vertex 1316
property double x
property double y
property double z
property uchar red
property uchar green
property uchar blue
end_header
0.0318685 -0.197062 1.09966 0 0 255
0.0282749 -0.197535 -0.56594 0 0 255
0.0326563 -0.196959 1.07141 0 0 255
0.0238691 -0.198115 2.80948 0 0 255
0.0465092 -0.195135 5.70218 0 0 255
0.0211047 -0.198479 0.917247 0 0 255
0.0218907 -0.198376 -0.121294 0 0 255
0.0194657 -0.198695 -0.655023 0 0 255
0.045734 -0.195237 6.6701 0 0 255
0.0145747 -0.199339 0.47582 0 0 255
0.0281128 -0.197557 0.423979 0 0 255
0.0261532 -0.197815 1.83453 0 0 255
0.0208791 -0.198509 2.11914 0 0 255
0.0486953 -0.194847 5.58066 0 0 255
0.0429196 -0.195607 1.55 0 0 255
0.0306337 -0.197225 -1.43915 0 0 255
0.0236136 -0.198149 -1.02197 0 0 255
0.0501702 -0.194653 0.176041 0 0 255
0.0503548 -0.194629 5.39415 0 0 255
0.020076 -0.198615 -1.33716 0 0 255
0.0162869 -0.199114 0.204515 0 0 255
0.0418806 -0.195744 0.772452 0 0 255
0.0431345 -0.195579 2.72496 0 0 255
0.0274791 -0.19764 -0.105172 0 0 255
0.0484908 -0.194874 3.77488 0 0 255
0.00407727 -0.200721 -0.880126 0 0 255
0.0473967 -0.195018 6.17168 0 0 255
0.024146 -0.198079 -1.3034 0 0 255
0.0224741 -0.198299 0.849201 0 0 255
0.00908876 -0.200061 -0.887733 0 0 255
0.0234052 -0.198176 -0.931777 0 0 255
0.032519 -0.196977 3.09503 0 0 255
0.00226764 -0.200959 -1.23976 0 0 255
0.0233725 -0.198181 0.981482 0 0 255
0.0320264 -0.197042 0.908854 0 0 255
0.0502953 -0.194636 1.71373 0 0 255
0.0373831 -0.196336 4.63878 0 0 255
0.0177325 -0.198923 0.757547 0 0 255
0.0378702 -0.196272 0.453726 0 0 255
0.0174368 -0.198962 -0.727826 0 0 255
0.0515015 -0.194478 5.49954 0 0 255
0.0472678 -0.195035 1.06229 0 0 255
0.0231568 -0.198209 0.384596 0 0 255
0.0499165 -0.194686 6.26252 0 0 255
0.0445694 -0.19539 2.27215 0 0 255
0.0116401 -0.199725 -0.116055 0 0 255
0.0433476 -0.195551 6.15586 0 0 255
0.0377728 -0.196285 -1.53726 0 0 255
0.0245216 -0.19803 1.14852 0 0 255
0.0435189 -0.195528 4.4955 0 0 255
0.0195042 -0.19869 0.802298 0 0 255
0.0269338 -0.197712 1.93155 0 0 255
0.0507426 -0.194577 5.17197 0 0 255
0.0186603 -0.198801 -1.54992 0 0 255
0.0500605 -0.194667 5.7269 0 0 255
0.0493162 -0.194765 3.79311 0 0 255
0.0480704 -0.194929 3.56037 0 0 255
0.0431181 -0.195581 1.51348 0 0 255
0.0339554 -0.196788 2.18635 0 0 255
0.0276104 -0.197623 -1.46325 0 0 255
0.0492452 -0.194775 7.33643 0 0 255
0.041376 -0.195811 0.815579 0 0 255
0.035413 -0.196596 -0.923691 0 0 255
0.0391764 -0.1961 -0.76686 0 0 255
0.0351487 -0.19663 0.732616 0 0 255
0.0385989 -0.196176 0.807851 0 0 255
0.0425765 -0.195653 1.55357 0 0 255
0.049627 -0.194724 0.60907 0 0 255
0.0403849 -0.195941 0.835009 0 0 255
0.0240169 -0.198096 -0.480989 0 0 255
0.0468795 -0.195086 6.05039 0 0 255
0.033936 -0.19679 -0.262993 0 0 255
0.0314544 -0.197117 0.684962 0 0 255
0.0184385 -0.19883 0.958366 0 0 255
0.0433782 -0.195547 2.44527 0 0 255
0.0148082 -0.199308 0.0635197 0 0 255
0.0470701 -0.195061 2.67111 0 0 255
0.0495206 -0.194738 -0.192413 0 0 255
0.0330151 -0.196911 2.69726 0 0 255
0.0236728 -0.198141 1.35561 0 0 255
0.0331611 -0.196892 0.704236 0 0 255
0.0307056 -0.197215 -0.619759 0 0 255
0.0513088 -0.194503 -1.32665 0 0 255
0.0318024 -0.197071 0.436863 0 0 255
0.0294272 -0.197384 1.85267 0 0 255
0.0356839 -0.19656 -0.0565437 0 0 255
0.0336231 -0.196831 -0.477749 0 0 255
0.0397853 -0.19602 4.26254 0 0 255
0.0164469 -0.199093 -0.919827 0 0 255
0.0339586 -0.196787 -1.09612 0 0 255
0.0437237 -0.195502 -0.884491 0 0 255
0.025169 -0.197944 -1.02644 0 0 255
0.0446777 -0.195376 4.15264 0 0 255
0.0495506 -0.194734 5.50569 0 0 255
0.0274195 -0.197648 1.61019 0 0 255
0.0446603 -0.195378 4.77175 0 0 255
0.0283659 -0.197523 1.80271 0 0 255
0.0238551 -0.198117 -1.13312 0 0 255
0.040243 -0.19596 -0.188437 0 0 255
0.0295131 -0.197372 -1.3713 0 0 255
0.0270242 -0.1977 -1.3729 0 0 255
0.0252733 -0.197931 2.85188 0 0 255
0.0030247 -0.20086 -1.15641 0 0 255
0.0326217 -0.196963 -0.00444118 0 0 255
0.0238685 -0.198116 -1.12192 0 0 255
0.0387098 -0.196162 0.2029 0 0 255
0.0314624 -0.197116 -0.861946 0 0 255
0.0422365 -0.195697 5.41843 0 0 255
0.0419127 -0.19574 0.861537 0 0 255
0.0286912 -0.197481 -0.549966 0 0 255
0.0186874 -0.198798 -0.415658 0 0 255
0.0210447 -0.198487 -1.48546 0 0 255
0.0252141 -0.197938 2.17642 0 0 255
0.0320619 -0.197037 3.62772 0 0 255
0.0367413 -0.196421 0.905058 0 0 255
0.0332842 -0.196876 1.6503 0 0 255
0.0253954 -0.197914 -0.528711 0 0 255
0.0495293 -0.194737 -1.0671 0 0 255
0.028248 -0.197539 3.04928 0 0 255
0.042446 -0.19567 2.71241 0 0 255
0.0482625 -0.194904 1.96837 0 0 255
0.0380721 -0.196246 4.49612 0 0 255
0.0359581 -0.196524 1.42172 0 0 255
0.0393047 -0.196083 0.616092 0 0 255
0.041241 -0.195828 2.81574 0 0 255
0.0214208 -0.198438 -0.654807 0 0 255
0.0419599 -0.195734 -1.03861 0 0 255
0.0308946 -0.197191 0.275602 0 0 255
0.0457346 -0.195237 0.502138 0 0 255
0.0291452 -0.197421 -0.190915 0 0 255
0.0485412 -0.194867 6.83324 0 0 255
0.0475226 -0.195001 5.05916 0 0 255
0.0437432 -0.195499 -1.49526 0 0 255
0.046847 -0.19509 5.12526 0 0 255
0.0081369 -0.200187 -0.604236 0 0 255
0.0491903 -0.194782 1.18055 0 0 255
0.0355349 -0.19658 1.97879 0 0 255
0.00509127 -0.200588 -0.878846 0 0 255
0.0451379 -0.195315 -0.175117 0 0 255
0.03822 -0.196226 -0.167613 0 0 255
0.0471812 -0.195046 -0.967733 0 0 255
0.0215843 -0.198416 0.277133 0 0 255
0.030394 -0.197256 1.04065 0 0 255
0.0195558 -0.198683 1.70178 0 0 255
0.0466198 -0.19512 5.89978 0 0 255
0.0509315 -0.194553 6.52009 0 0 255
0.0399686 -0.195996 2.55448 0 0 255
0.0469668 -0.195075 3.44309 0 0 255
0.0305745 -0.197233 0.305161 0 0 255
0.022743 -0.198264 2.54771 0 0 255
0.0469845 -0.195072 0.343816 0 0 255
0.0499533 -0.194681 4.96069 0 0 255
0.0429498 -0.195603 4.13279 0 0 255
0.0258797 -0.197851 1.02769 0 0 255
0.0348359 -0.196672 0.19358 0 0 255
0.0227585 -0.198262 -1.61009 0 0 255
0.00533968 -0.200555 -0.866382 0 0 255
0.0374827 -0.196323 4.60233 0 0 255
0.0309207 -0.197187 0.896476 0 0 255
0.0313073 -0.197136 1.83437 0 0 255
0.0268677 -0.197721 -0.282031 0 0 255
0.0474725 -0.195008 0.317968 0 0 255
0.03416 -0.196761 -0.139044 0 0 255
0.0377028 -0.196294 1.41996 0 0 255
0.0323737 -0.196996 1.40217 0 0 255
0.0264721 -0.197773 3.23304 0 0 255
0.0232663 -0.198195 0.997765 0 0 255
0.0351127 -0.196635 0.309294 0 0 255
0.0346297 -0.196699 3.42893 0 0 255
0.0266708 -0.197747 3.06577 0 0 255
0.0358921 -0.196533 3.44748 0 0 255
0.0511001 -0.19453 1.71018 0 0 255
0.0349398 -0.196658 4.54325 0 0 255
0.0438874 -0.19548 5.59531 0 0 255
0.0414276 -0.195804 3.03358 0 0 255
0.0169057 -0.199032 0.203844 0 0 255
0.0130128 -0.199545 -1.44842 0 0 255
0.0505573 -0.194602 7.3936 0 0 255
0.0420813 -0.195718 4.34921 0 0 255
0.0198814 -0.19864 -0.180039 0 0 255
0.0160121 -0.19915 0.204786 0 0 255
0.0250719 -0.197957 0.523538 0 0 255
0.0424275 -0.195672 2.76484 0 0 255
0.0087529 -0.200106 -0.2581 0 0 255
0.0205613 -0.198551 1.68681 0 0 255
0.0183811 -0.198838 -0.534543 0 0 255
0.0463348 -0.195158 2.63053 0 0 255
0.0316053 -0.197097 -1.4055 0 0 255
0.0275983 -0.197624 2.78468 0 0 255
0.0361106 -0.196504 1.3135 0 0 255
0.0217808 -0.19839 2.15412 0 0 255
0.0363489 -0.196472 -0.843453 0 0 255
0.0455252 -0.195264 3.36461 0 0 255
0.0185233 -0.198819 1.64206 0 0 255
0.0020145 -0.200993 -1.52388 0 0 255
0.0339431 -0.196789 3.94594 0 0 255
0.0340194 -0.196779 2.24478 0 0 255
0.0508777 -0.19456 1.12851 0 0 255
0.043912 -0.195477 1.69753 0 0 255
0.0155931 -0.199205 1.11015 0 0 255
0.0284166 -0.197517 2.7915 0 0 255
0.0403448 -0.195946 -1.46846 0 0 255
0.0515062 -0.194477 5.50177 0 0 255
0.0279887 -0.197573 -1.31698 0 0 255
0.0470278 -0.195067 -0.398293 0 0 255
0.0157607 -0.199183 -0.306942 0 0 255
0.0265414 -0.197764 2.45393 0 0 255
0.0500381 -0.19467 -0.712531 0 0 255
0.0185744 -0.198812 -0.157077 0 0 255
0.0137146 -0.199452 0.139837 0 0 255
0.0509063 -0.194556 6.91727 0 0 255
0.036701 -0.196426 1.53742 0 0 255
0.045054 -0.195326 6.30945 0 0 255
0.0190628 -0.198748 -1.04838 0 0 255
0.0499402 -0.194683 5.74912 0 0 255
0.0370567 -0.196379 1.81089 0 0 255
0.0143809 -0.199365 -0.951135 0 0 255
0.0269061 -0.197716 -0.571065 0 0 255
0.0435534 -0.195524 3.08402 0 0 255
0.0392593 -0.196089 -0.345441 0 0 255
0.0429653 -0.195601 3.03191 0 0 255
0.0457046 -0.195241 2.07399 0 0 255
0.0422379 -0.195697 4.10782 0 0 255
0.0451696 -0.195311 4.34602 0 0 255
0.0372564 -0.196353 2.52372 0 0 255
0.0316153 -0.197096 -0.808247 0 0 255
0.0479596 -0.194944 5.0722 0 0 255
0.0369279 -0.196396 2.60634 0 0 255
0.0386362 -0.196171 0.585974 0 0 255
0.0450638 -0.195325 -0.142799 0 0 255
0.0446724 -0.195377 5.61198 0 0 255
0.0432831 -0.19556 1.96039 0 0 255
0.0433309 -0.195553 -0.77613 0 0 255
0.0400496 -0.195985 -0.478287 0 0 255
0.0474453 -0.195012 -0.622791 0 0 255
0.00237987 -0.200945 -1.51316 0 0 255
0.0509198 -0.194554 6.09179 0 0 255
0.0194553 -0.198697 0.11486 0 0 255
0.0349525 -0.196656 4.79352 0 0 255
0.0301076 -0.197294 3.39461 0 0 255
0.0044098 -0.200677 -1.458 0 0 255
0.0483507 -0.194892 1.66565 0 0 255
0.0290101 -0.197439 2.55134 0 0 255
0.0163213 -0.199109 -0.557791 0 0 255
0.024096 -0.198086 -0.944378 0 0 255
0.0189412 -0.198764 -0.398734 0 0 255
0.0329828 -0.196916 2.6599 0 0 255
0.0463094 -0.195161 -0.0128294 0 0 255
0.0232369 -0.198199 0.205129 0 0 255
0.0218717 -0.198378 0.784535 0 0 255
0.0131364 -0.199528 -1.57966 0 0 255
0.0216839 -0.198403 2.02686 0 0 255
0.051326 -0.194501 1.54232 0 0 255
0.028887 -0.197455 1.56171 0 0 255
0.0257274 -0.197871 0.72817 0 0 255
0.0425007 -0.195663 1.71499 0 0 255
0.0468101 -0.195095 3.62658 0 0 255
0.0298488 -0.197328 2.25549 0 0 255
0.0508435 -0.194564 4.47109 0 0 255
0.0240603 -0.19809 2.70209 0 0 255
0.0319077 -0.197057 -1.45258 0 0 255
0.0504725 -0.194613 2.04647 0 0 255
0.01393 -0.199424 0.864662 0 0 255
0.0499147 -0.194686 4.55281 0 0 255
0.0461359 -0.195184 6.87171 0 0 255
0.0418125 -0.195753 5.82634 0 0 255
0.0364953 -0.196453 -0.647858 0 0 255
0.0396022 -0.196044 2.07642 0 0 255
0.0221007 -0.198348 1.99683 0 0 255
0.0344391 -0.196724 3.9344 0 0 255
0.0167337 -0.199055 -0.646949 0 0 255
0.0251318 -0.197949 0.45664 0 0 255
0.0435721 -0.195521 1.79818 0 0 255
0.0391949 -0.196098 3.39945 0 0 255
0.0431198 -0.195581 2.57752 0 0 255
0.0305629 -0.197234 -0.620205 0 0 255
0.032652 -0.196959 2.92418 0 0 255
0.0443177 -0.195423 2.56887 0 0 255
0.0466449 -0.195117 1.8365 0 0 255
0.012566 -0.199604 -1.40757 0 0 255
0.0428139 -0.195621 -0.394634 0 0 255
0.0438887 -0.19548 -0.895423 0 0 255
0.00938303 -0.200023 -0.35385 0 0 255
0.0360145 -0.196516 -1.41787 0 0 255
0.0424942 -0.195663 -0.734297 0 0 255
0.0432208 -0.195568 3.44953 0 0 255
0.0314543 -0.197117 3.016 0 0 255
0.0358358 -0.19654 4.54387 0 0 255
0.0255308 -0.197897 0.83831 0 0 255
0.044833 -0.195355 1.65297 0 0 255
0.0482473 -0.194906 6.90223 0 0 255
0.0513652 -0.194496 5.42712 0 0 255
0.0479393 -0.194947 5.06039 0 0 255
0.0446745 -0.195376 5.63811 0 0 255
0.020735 -0.198528 1.93697 0 0 255
0.0450497 -0.195327 2.03731 0 0 255
0.0178288 -0.198911 -1.36587 0 0 255
0.0272231 -0.197674 -1.09601 0 0 255
0.0364112 -0.196464 -0.609691 0 0 255
0.0362741 -0.196482 1.7022 0 0 255
0.0347435 -0.196684 3.82939 0 0 255
0.035798 -0.196545 3.27361 0 0 255
0.0407527 -0.195893 -0.740933 0 0 255
0.0334484 -0.196854 1.82086 0 0 255
0.0260596 -0.197827 2.07993 0 0 255
0.0417325 -0.195764 0.0505133 0 0 255
0.0304428 -0.19725 0.0619354 0 0 255
0.0423618 -0.195681 4.24888 0 0 255
0.0301681 -0.197286 2.13873 0 0 255
0.0435851 -0.19552 2.87193 0 0 255
0.0340314 -0.196778 2.84878 0 0 255
0.0376977 -0.196295 -1.38231 0 0 255
0.0406552 -0.195906 3.49479 0 0 255
0.0249177 -0.197977 1.1801 0 0 255
0.0373254 -0.196344 1.16948 0 0 255
0.0132559 -0.199513 -0.65113 0 0 255
0.0438501 -0.195485 2.26852 0 0 255
0.0507823 -0.194572 0.90901 0 0 255
0.0367162 -0.196424 -0.726753 0 0 255
0.0295542 -0.197367 -1.25249 0 0 255
0.0473248 -0.195027 3.12064 0 0 255
0.0237603 -0.19813 -1.52906 0 0 255
0.0346807 -0.196692 0.570109 0 0 255
0.0433022 -0.195557 -0.00506839 0 0 255
0.0449481 -0.19534 4.4685 0 0 255
0.0464386 -0.195144 -1.23069 0 0 255
0.0312401 -0.197145 3.12747 0 0 255
0.0377017 -0.196294 4.56725 0 0 255
0.0224065 -0.198308 1.35133 0 0 255
0.0330437 -0.196908 2.25214 0 0 255
0.0496259 -0.194724 5.79532 0 0 255
0.0268618 -0.197721 0.156085 0 0 255
0.0383525 -0.196209 1.03858 0 0 255
0.0306588 -0.197222 0.0304737 0 0 255
0.0464116 -0.195148 0.194746 0 0 255
0.0413548 -0.195813 0.376187 0 0 255
0.0125667 -0.199603 -0.543761 0 0 255
0.0514646 -0.194482 4.8752 0 0 255
0.0436967 -0.195505 4.41059 0 0 255
0.0324089 -0.196991 -0.481525 0 0 255
0.0276981 -0.197611 1.78287 0 0 255
0.013819 -0.199439 0.141636 0 0 255
0.0299174 -0.197319 1.96117 0 0 255
0.0493842 -0.194756 0.490721 0 0 255
0.0132284 -0.199516 0.767607 0 0 255
0.0472926 -0.195032 4.21681 0 0 255
0.0364911 -0.196454 1.16448 0 0 255
0.0126922 -0.199587 -1.00478 0 0 255
0.0155677 -0.199208 1.26068 0 0 255
0.0372531 -0.196353 -1.18857 0 0 255
0.011047 -0.199803 -1.18911 0 0 255
0.046245 -0.19517 1.23574 0 0 255
0.0362991 -0.196479 4.60051 0 0 255
0.0152402 -0.199251 -0.397002 0 0 255
0.044931 -0.195343 4.65635 0 0 255
0.00251467 -0.200927 -1.32617 0 0 255
0.0212405 -0.198461 -1.1154 0 0 255
0.0389533 -0.19613 -1.20236 0 0 255
0.0474823 -0.195007 7.08582 0 0 255
0.022394 -0.19831 0.929114 0 0 255
0.0195556 -0.198683 0.661698 0 0 255
0.0504916 -0.194611 1.40625 0 0 255
0.0377906 -0.196283 -0.393808 0 0 255
0.0467873 -0.195098 4.56251 0 0 255
0.0270955 -0.197691 1.65444 0 0 255
0.0215844 -0.198416 0.555777 0 0 255
0.0486162 -0.194857 6.66168 0 0 255
0.0493034 -0.194767 4.7001 0 0 255
0.0512683 -0.194508 6.12105 0 0 255
0.0477196 -0.194975 4.59966 0 0 255
0.0491418 -0.194788 7.06268 0 0 255
0.0461222 -0.195186 -0.749366 0 0 255
0.0420399 -0.195723 1.74569 0 0 255
0.0449494 -0.19534 1.56048 0 0 255
0.049295 -0.194768 -0.551633 0 0 255
0.00662878 -0.200385 -1.56025 0 0 255
0.028657 -0.197485 -0.803569 0 0 255
0.0469442 -0.195078 4.31989 0 0 255
0.0501922 -0.19465 2.4569 0 0 255
0.0451169 -0.195318 3.6182 0 0 255
0.0455663 -0.195259 0.59701 0 0 255
0.0279403 -0.197579 0.98149 0 0 255
0.0299657 -0.197313 2.90478 0 0 255
0.0211838 -0.198469 2.22546 0 0 255
0.0381796 -0.196231 0.858162 0 0 255
0.0275439 -0.197632 2.09822 0 0 255
0.046011 -0.1952 1.20594 0 0 255
0.00721111 -0.200308 -1.47233 0 0 255
0.0272892 -0.197665 1.63536 0 0 255
0.0124277 -0.199622 -0.973217 0 0 255
0.0306074 -0.197228 2.99755 0 0 255
0.0378021 -0.196281 0.0855861 0 0 255
0.034707 -0.196689 2.52695 0 0 255
0.043336 -0.195553 1.0627 0 0 255
0.0453599 -0.195286 1.57472 0 0 255
0.0347134 -0.196688 2.16157 0 0 255
0.0438854 -0.19548 5.98143 0 0 255
0.0386524 -0.196169 2.04179 0 0 255
0.0459406 -0.19521 -1.54116 0 0 255
0.0201729 -0.198602 -0.23567 0 0 255
0.0492449 -0.194775 -0.161352 0 0 255
0.0327432 -0.196947 2.6232 0 0 255
0.0217049 -0.1984 1.54698 0 0 255
0.0293049 -0.1974 1.43345 0 0 255
0.0444825 -0.195402 -0.210588 0 0 255
0.0122921 -0.19964 -0.98359 0 0 255
0.0170733 -0.19901 0.69909 0 0 255
0.0183981 -0.198836 1.73664 0 0 255
0.0494985 -0.194741 5.86966 0 0 255
0.0506783 -0.194586 7.3868 0 0 255
0.0172468 -0.198987 0.719897 0 0 255
0.050071 -0.194666 -0.93001 0 0 255
0.0226819 -0.198272 1.49588 0 0 255
0.0335909 -0.196836 -0.341617 0 0 255
0.0445495 -0.195393 1.69455 0 0 255
0.0447374 -0.195368 -1.1722 0 0 255
0.048278 -0.194902 -0.304199 0 0 255
0.0193517 -0.19871 1.06546 0 0 255
0.00159099 -0.201048 -1.60238 0 0 255
0.0308436 -0.197197 2.50147 0 0 255
0.0155641 -0.199209 -1.23927 0 0 255
0.0275274 -0.197634 1.64257 0 0 255
0.0397369 -0.196026 -1.57546 0 0 255
0.0311729 -0.197154 3.79107 0 0 255
0.0357694 -0.196549 0.829573 0 0 255
0.0502661 -0.19464 3.8362 0 0 255
0.0222131 -0.198333 0.760192 0 0 255
0.0377863 -0.196283 0.808938 0 0 255
0.0513903 -0.194492 4.37074 0 0 255
0.0277213 -0.197608 3.51277 0 0 255
0.0500641 -0.194667 0.0289246 0 0 255
0.0210982 -0.19848 0.0232098 0 0 255
0.0376087 -0.196307 0.893865 0 0 255
0.0375549 -0.196314 2.1571 0 0 255
0.0501285 -0.194658 0.948391 0 0 255
0.048764 -0.194838 6.74735 0 0 255
0.0505956 -0.194597 5.8469 0 0 255
0.0466805 -0.195112 4.7329 0 0 255
0.0193514 -0.19871 0.0190452 0 0 255
0.0269956 -0.197704 1.79372 0 0 255
0.0386218 -0.196173 1.29325 0 0 255
0.0139021 -0.199428 -1.19252 0 0 255
0.0480983 -0.194926 3.41154 0 0 255
0.0369644 -0.196391 4.60049 0 0 255
0.032292 -0.197007 -0.698585 0 0 255
0.0309186 -0.197187 -1.48986 0 0 255
0.0382595 -0.196221 4.01724 0 0 255
0.0390792 -0.196113 1.66763 0 0 255
0.0329367 -0.196922 2.06893 0 0 255
0.0338024 -0.196808 0.129217 0 0 255
0.0511411 -0.194525 7.18554 0 0 255
0.0327841 -0.196942 1.90378 0 0 255
0.0350487 -0.196644 4.19354 0 0 255
0.0489958 -0.194807 3.03954 0 0 255
0.0327795 -0.196942 4.41943 0 0 255
0.0282704 -0.197536 -0.950275 0 0 255
0.0145356 -0.199344 -0.180408 0 0 255
0.0475334 -0.195 1.54356 0 0 255
0.0167234 -0.199056 0.693971 0 0 255
0.0456905 -0.195243 0.0771392 0 0 255
0.0340481 -0.196775 4.53098 0 0 255
0.0319443 -0.197052 1.7407 0 0 255
0.0460162 -0.1952 1.18107 0 0 255
0.0440749 -0.195455 5.30112 0 0 255
0.0390868 -0.196112 -0.883117 0 0 255
0.0368353 -0.196408 5.16433 0 0 255
0.0414719 -0.195798 5.04592 0 0 255
0.0297058 -0.197347 -1.48218 0 0 255
0.0308667 -0.197194 -0.41716 0 0 255
0.0227739 -0.19826 2.29705 0 0 255
0.00829211 -0.200166 -1.4926 0 0 255
0.0400164 -0.19599 3.52119 0 0 255
0.0320554 -0.197038 -0.285362 0 0 255
0.0346297 -0.196699 -0.597815 0 0 255
0.03193 -0.197054 0.69329 0 0 255
0.0144447 -0.199356 0.543282 0 0 255
0.0386433 -0.19617 1.97292 0 0 255
0.0257916 -0.197862 1.53393 0 0 255
0.0334454 -0.196855 0.372135 0 0 255
0.0265478 -0.197763 0.456835 0 0 255
0.0268978 -0.197717 0.33971 0 0 255
0.0260465 -0.197829 -0.271086 0 0 255
0.0274639 -0.197642 1.22032 0 0 255
0.0337635 -0.196813 -0.766914 0 0 255
0.0279442 -0.197579 1.00007 0 0 255
0.0403437 -0.195947 -0.356005 0 0 255
0.0107224 -0.199846 -0.607487 0 0 255
0.00914105 -0.200054 -0.273713 0 0 255
0.0389218 -0.196134 4.12178 0 0 255
0.0453323 -0.19529 3.98956 0 0 255
0.0447981 -0.19536 4.17879 0 0 255
0.0168889 -0.199034 1.13974 0 0 255
0.0341 -0.196769 4.59302 0 0 255
0.0347765 -0.196679 4.21966 0 0 255
0.0145489 -0.199342 0.159852 0 0 255
0.0436799 -0.195507 5.82592 0 0 255
0.0270088 -0.197702 2.869 0 0 255
0.0405948 -0.195913 2.17757 0 0 255
0.036247 -0.196486 3.73412 0 0 255
0.0212067 -0.198466 1.11135 0 0 255
0.0498723 -0.194692 2.74282 0 0 255
0.0435247 -0.195528 6.20641 0 0 255
0.02941 -0.197386 3.7258 0 0 255
0.0409617 -0.195865 1.87915 0 0 255
0.0159753 -0.199155 -0.223747 0 0 255
0.0307095 -0.197215 -0.899179 0 0 255
0.00925904 -0.200039 -1.374 0 0 255
0.0364125 -0.196464 0.747747 0 0 255
0.0457895 -0.19523 3.84884 0 0 255
0.0381235 -0.196239 4.73502 0 0 255
0.0444462 -0.195406 5.73946 0 0 255
0.0349432 -0.196658 -1.29429 0 0 255
0.0171241 -0.199003 0.0353855 0 0 255
0.0470658 -0.195062 2.47099 0 0 255
0.0357295 -0.196554 2.48917 0 0 255
0.0473818 -0.19502 0.086139 0 0 255
0.0449608 -0.195339 6.1564 0 0 255
0.0392789 -0.196087 2.95952 0 0 255
0.0374886 -0.196322 -0.667411 0 0 255
0.0355349 -0.19658 -1.54991 0 0 255
0.049408 -0.194753 4.90169 0 0 255
0.0426651 -0.195641 1.84832 0 0 255
0.0195523 -0.198684 1.03904 0 0 255
0.049653 -0.194721 0.644748 0 0 255
0.0439419 -0.195473 5.22631 0 0 255
0.0507202 -0.19458 5.73366 0 0 255
0.0501589 -0.194654 2.06087 0 0 255
0.050563 -0.194601 3.99728 0 0 255
0.0397926 -0.196019 1.4888 0 0 255
0.0297173 -0.197345 -0.331132 0 0 255
0.0357199 -0.196555 2.20765 0 0 255
0.0176306 -0.198937 -1.10872 0 0 255
0.0286572 -0.197485 2.34811 0 0 255
0.0157171 -0.199189 -1.58431 0 0 255
0.0241738 -0.198075 -0.768891 0 0 255
0.0282272 -0.197542 -0.0166343 0 0 255
0.0482878 -0.194901 0.348862 0 0 255
0.00680498 -0.200362 -1.579 0 0 255
0.0228416 -0.198251 -0.573246 0 0 255
0.048699 -0.194847 6.90432 0 0 255
0.0380659 -0.196246 4.36215 0 0 255
0.0207898 -0.198521 -1.33859 0 0 255
0.0420345 -0.195724 3.94225 0 0 255
0.0421393 -0.19571 4.52545 0 0 255
0.0165669 -0.199077 0.173865 0 0 255
0.0250527 -0.19796 -0.435544 0 0 255
0.0423031 -0.195689 4.4616 0 0 255
0.043861 -0.195483 -0.131184 0 0 255
0.0463832 -0.195151 -1.41118 0 0 255
0.0254579 -0.197906 -1.30649 0 0 255
0.0417903 -0.195756 1.50452 0 0 255
0.0493645 -0.194759 4.09082 0 0 255
0.0495352 -0.194736 7.49496 0 0 255
0.0325475 -0.196973 2.43772 0 0 255
0.0224802 -0.198298 -0.319449 0 0 255
0.0377199 -0.196292 0.665109 0 0 255
0.0270734 -0.197694 2.86529 0 0 255
0.0371482 -0.196367 2.67836 0 0 255
0.0208296 -0.198516 -1.53088 0 0 255
0.0192051 -0.198729 1.43797 0 0 255
0.0370493 -0.19638 0.318961 0 0 255
0.0474928 -0.195005 0.396606 0 0 255
0.0365069 -0.196452 0.148553 0 0 255
0.0455412 -0.195262 6.32993 0 0 255
0.0456397 -0.195249 4.44215 0 0 255
0.0283139 -0.19753 -1.23462 0 0 255
0.0497529 -0.194708 3.50224 0 0 255
0.0400246 -0.195989 5.27807 0 0 255
0.0352804 -0.196613 3.16054 0 0 255
0.0312747 -0.19714 0.0752499 0 0 255
0.0410234 -0.195857 1.9346 0 0 255
0.0136426 -0.199462 -0.878794 0 0 255
0.0338794 -0.196798 4.48965 0 0 255
0.0249885 -0.197968 0.0212133 0 0 255
0.0411593 -0.195839 -0.663632 0 0 255
0.0338663 -0.196799 2.98746 0 0 255
0.042494 -0.195663 4.10705 0 0 255
0.0305584 -0.197235 0.861963 0 0 255
0.00627802 -0.200431 -0.440903 0 0 255
0.0385784 -0.196179 1.35082 0 0 255
0.0471353 -0.195052 4.68143 0 0 255
0.0351552 -0.19663 -1.15067 0 0 255
0.00729402 -0.200298 -1.33442 0 0 255
0.0430994 -0.195584 0.0800133 0 0 255
0.0405667 -0.195917 -0.342916 0 0 255
0.0486802 -0.194849 2.75331 0 0 255
0.027564 -0.197629 -0.450575 0 0 255
0.0201948 -0.198599 1.34131 0 0 255
0.0464263 -0.195146 5.44122 0 0 255
0.0409104 -0.195872 0.523584 0 0 255
0.0157488 -0.199184 0.606897 0 0 255
0.0274748 -0.197641 1.08591 0 0 255
0.0486673 -0.194851 2.19439 0 0 255
0.0234252 -0.198174 -0.660027 0 0 255
0.0304196 -0.197253 0.573464 0 0 255
0.0158793 -0.199167 -0.700628 0 0 255
0.0455882 -0.195256 5.35368 0 0 255
0.0452283 -0.195303 1.33229 0 0 255
0.0299038 -0.197321 -0.896267 0 0 255
0.0478556 -0.194958 1.13155 0 0 255
0.00604724 -0.200462 -1.2802 0 0 255
0.0479224 -0.194949 2.49358 0 0 255
0.0206986 -0.198533 -0.525275 0 0 255
0.0215404 -0.198422 1.51668 0 0 255
0.0451814 -0.19531 5.42091 0 0 255
0.0275755 -0.197627 -0.889056 0 0 255
0.0486942 -0.194847 4.5106 0 0 255
0.0171982 -0.198994 1.56755 0 0 255
0.0119506 -0.199685 -1.19748 0 0 255
0.0276233 -0.197621 3.4661 0 0 255
0.0320929 -0.197033 1.23377 0 0 255
0.0424039 -0.195675 0.845927 0 0 255
0.0511245 -0.194527 -1.07156 0 0 255
0.0397065 -0.19603 1.85716 0 0 255
0.0247526 -0.197999 1.79048 0 0 255
0.0209812 -0.198496 2.01561 0 0 255
0.0325093 -0.196978 -0.284133 0 0 255
0.0319727 -0.197049 -0.975428 0 0 255
0.050857 -0.194562 0.550101 0 0 255
0.00894366 -0.20008 -1.10591 0 0 255
0.0210477 -0.198487 0.0220648 0 0 255
0.0279898 -0.197573 -0.142456 0 0 255
0.0398144 -0.196016 0.853397 0 0 255
0.0143226 -0.199372 -0.426317 0 0 255
0.0292231 -0.197411 0.067597 0 0 255
0.0397135 -0.196029 2.23074 0 0 255
0.0345242 -0.196713 4.25773 0 0 255
0.0252059 -0.197939 -1.52033 0 0 255
0.0417319 -0.195764 4.66151 0 0 255
0.0252101 -0.197939 0.734077 0 0 255
0.0474096 -0.195016 1.76332 0 0 255
0.0495286 -0.194737 -1.04395 0 0 255
0.0321451 -0.197026 -0.591872 0 0 255
0.0462176 -0.195173 1.44587 0 0 255
0.041423 -0.195804 0.0309328 0 0 255
0.0471868 -0.195046 2.77615 0 0 255
0.0333504 -0.196867 1.47893 0 0 255
0.0226802 -0.198272 0.313609 0 0 255
0.0173038 -0.19898 0.612425 0 0 255
0.0503233 -0.194633 -1.34884 0 0 255
0.0432688 -0.195561 -1.15499 0 0 255
0.040358 -0.195945 4.30056 0 0 255
0.0269761 -0.197706 0.359586 0 0 255
0.0359878 -0.19652 4.04101 0 0 255
0.0410381 -0.195855 5.34516 0 0 255
0.0288604 -0.197458 1.34374 0 0 255
0.0292577 -0.197406 -0.500644 0 0 255
0.0185666 -0.198814 -0.755186 0 0 255
0.0379512 -0.196261 -0.819551 0 0 255
0.0355803 -0.196574 0.0296189 0 0 255
0.0375497 -0.196314 4.63538 0 0 255
0.0507458 -0.194577 0.930584 0 0 255
0.0497784 -0.194704 3.51598 0 0 255
0.0406188 -0.19591 5.15337 0 0 255
0.00954172 -0.200002 -1.34292 0 0 255
0.0510096 -0.194542 6.58339 0 0 255
0.025965 -0.19784 0.51182 0 0 255
0.0486978 -0.194847 -1.24494 0 0 255
0.0428887 -0.195611 1.30014 0 0 255
0.0477031 -0.194978 3.38864 0 0 255
0.0434124 -0.195543 -1.14119 0 0 255
0.0280687 -0.197563 -0.249261 0 0 255
0.0240081 -0.198097 0.0118501 0 0 255
0.0464027 -0.195149 6.31096 0 0 255
0.0246984 -0.198006 -0.300569 0 0 255
0.0464092 -0.195148 4.62993 0 0 255
0.0110526 -0.199803 -0.762125 0 0 255
0.0419805 -0.195731 -0.526411 0 0 255
0.0353566 -0.196603 -1.25124 0 0 255
0.0427455 -0.19563 3.88081 0 0 255
0.0417355 -0.195763 1.1525 0 0 255
0.0216851 -0.198403 -0.181238 0 0 255
0.0489975 -0.194807 6.6758 0 0 255
0.0328191 -0.196937 -0.693541 0 0 255
0.0196553 -0.19867 -0.360898 0 0 255
0.0224027 -0.198308 0.708673 0 0 255
0.0434257 -0.195541 2.04549 0 0 255
0.027207 -0.197676 1.14806 0 0 255
0.02739 -0.197652 -0.398621 0 0 255
0.0467926 -0.195097 1.48324 0 0 255
0.0393596 -0.196076 2.92753 0 0 255
0.0353756 -0.196601 0.431449 0 0 255
0.00356213 -0.200789 -1.11596 0 0 255
0.036224 -0.196489 3.16511 0 0 255
0.0164531 -0.199092 0.833736 0 0 255
0.0428435 -0.195617 6.15598 0 0 255
0.0172633 -0.198985 0.599894 0 0 255
0.0269394 -0.197711 -1.19263 0 0 255
0.0254265 -0.19791 2.02948 0 0 255
0.032206 -0.197018 0.52681 0 0 255
0.0149841 -0.199285 -0.229634 0 0 255
0.0176234 -0.198938 -0.915663 0 0 255
0.0499579 -0.194681 4.52748 0 0 255
0.0338503 -0.196801 4.12554 0 0 255
0.0480214 -0.194936 4.53117 0 0 255
0.0457627 -0.195233 6.37241 0 0 255
0.0496314 -0.194724 4.66249 0 0 255
0.0267292 -0.197739 1.20539 0 0 255
0.0456201 -0.195252 0.524367 0 0 255
0.0475953 -0.194992 1.95803 0 0 255
0.047365 -0.195022 4.13416 0 0 255
0.0418436 -0.195749 -0.863613 0 0 255
0.0321038 -0.197031 2.02862 0 0 255
0.0230232 -0.198227 -0.727412 0 0 255
0.00851193 -0.200137 -0.440749 0 0 255
0.0295436 -0.197368 0.0985442 0 0 255
0.0439981 -0.195465 2.16039 0 0 255
0.024264 -0.198063 0.0798485 0 0 255
0.0407716 -0.19589 3.58015 0 0 255
0.0238356 -0.19812 -0.757935 0 0 255
0.0505681 -0.1946 1.34557 0 0 255
0.016711 -0.199058 0.166009 0 0 255
0.0418941 -0.195742 0.678765 0 0 255
0.0142111 -0.199387 -0.219036 0 0 255
0.0239914 -0.198099 2.6262 0 0 255
0.0336663 -0.196826 -0.508973 0 0 255
0.0217988 -0.198388 3.22195 0 0 255
0.0153503 -0.199237 3.29774 0 0 255
0.00384697 -0.200751 4.09674 0 0 255
0.0190797 -0.198746 5.2249 0 0 255
0.0334252 -0.196857 7.91009 0 0 255
0.0240873 -0.198087 7.1228 0 0 255
0.00612203 -0.200452 1.07906 0 0 255
0.0290538 -0.197433 6.44113 0 0 255
0.0255267 -0.197897 5.07095 0 0 255
0.0326802 -0.196955 5.19786 0 0 255
0.010143 -0.199922 2.06145 0 0 255
0.0132378 -0.199515 3.56177 0 0 255
0.00284901 -0.200883 1.87104 0 0 255
0.00811841 -0.200189 7.46335 0 0 255
0.0279685 -0.197576 6.43729 0 0 255
0.00360567 -0.200783 2.01935 0 0 255
0.00293 -0.200872 1.96069 0 0 255
0.000481925 -0.201194 -0.174779 0 0 255
0.00245936 -0.200934 4.62151 0 0 255
0.00434917 -0.200685 5.4319 0 0 255
0.0217741 -0.198391 7.09264 0 0 255
0.0251233 -0.19795 4.78599 0 0 255
0.00938974 -0.200022 4.66667 0 0 255
0.00269209 -0.200903 4.16206 0 0 255
0.0207973 -0.19852 7.38689 0 0 255
0.0169099 -0.199032 2.40604 0 0 255
0.00249545 -0.200929 1.08516 0 0 255
0.0179078 -0.1989 1.93407 0 0 255
0.0129634 -0.199551 7.26232 0 0 255
0.0276549 -0.197617 5.48251 0 0 255
0.00180793 -0.20102 3.95373 0 0 255
0.0246933 -0.198007 6.535 0 0 255
0.0389294 -0.196133 7.6006 0 0 255
0.018172 -0.198865 3.16782 0 0 255
0.017361 -0.198972 6.28576 0 0 255
0.0106456 -0.199856 5.78266 0 0 255
0.00447436 -0.200669 2.99418 0 0 255
0.0173789 -0.19897 7.43445 0 0 255
0.0201915 -0.1986 3.49005 0 0 255
0.0197722 -0.198655 4.39009 0 0 255
0.00594083 -0.200476 2.71989 0 0 255
0.0162312 -0.199121 6.75375 0 0 255
0.0230104 -0.198228 7.81991 0 0 255
0.00234286 -0.200949 7.4295 0 0 255
0.0130046 -0.199546 2.69693 0 0 255
0.0312138 -0.197148 7.53087 0 0 255
0.0387039 -0.196162 7.80064 0 0 255
0.042943 -0.195604 6.83035 0 0 255
0.00546832 -0.200538 4.28789 0 0 255
0.035127 -0.196633 5.54317 0 0 255
0.01092 -0.19982 5.35386 0 0 255
0.00928499 -0.200035 1.24254 0 0 255
0.00426026 -0.200697 2.09553 0 0 255
0.0257857 -0.197863 5.46185 0 0 255
0.0141178 -0.199399 4.46009 0 0 255
0.0296533 -0.197354 7.90884 0 0 255
0.0126797 -0.199589 2.30609 0 0 255
0.019378 -0.198707 5.73279 0 0 255
0.0274946 -0.197638 6.66622 0 0 255
0.0169666 -0.199024 5.56838 0 0 255
0.0431635 -0.195575 6.78348 0 0 255
0.0418968 -0.195742 6.2102 0 0 255
0.0326778 -0.196956 7.2601 0 0 255
0.0169709 -0.199024 2.47808 0 0 255
0.0285673 -0.197497 5.62851 0 0 255
0.0108636 -0.199828 2.12125 0 0 255
0.00266086 -0.200908 6.62616 0 0 255
0.0424003 -0.195676 7.87393 0 0 255
0.0154584 -0.199223 3.16278 0 0 255
0.0102214 -0.199912 4.69122 0 0 255
0.0278879 -0.197586 7.78187 0 0 255
0.0253823 -0.197916 3.45878 0 0 255
0.00356043 -0.200789 1.96036 0 0 255
0.0146286 -0.199332 5.80696 0 0 255
0.0401947 -0.195966 5.9079 0 0 255
0.00627169 -0.200432 3.17378 0 0 255
0.00381058 -0.200756 0.32543 0 0 255
0.00341722 -0.200808 3.46538 0 0 255
0.0288534 -0.197459 6.27748 0 0 255
0.0316256 -0.197094 4.87685 0 0 255
9.97648e-05 -0.201245 5.14056 0 0 255
0.00456869 -0.200656 5.29247 0 0 255
0.00862216 -0.200123 2.71873 0 0 255
0.0241576 -0.198077 4.66847 0 0 255
0.00186263 -0.201013 2.64381 0 0 255
0.00204758 -0.200988 3.82616 0 0 255
0.00732699 -0.200293 4.22093 0 0 255
0.0143142 -0.199373 6.07738 0 0 255
0.00948062 -0.20001 7.41006 0 0 255
0.00930668 -0.200033 6.72982 0 0 255
0.0034039 -0.20081 2.9115 0 0 255
0.00180872 -0.20102 -0.92841 0 0 255
0.0077126 -0.200242 5.17257 0 0 255
0.0149535 -0.199289 7.74042 0 0 255
0.00076407 -0.201157 -0.622351 0 0 255
0.00653945 -0.200397 6.22977 0 0 255
0.0430393 -0.195592 7.53222 0 0 255
0.000892196 -0.20114 1.72835 0 0 255
1.07186e-05 -0.201256 2.68003 0 0 255
0.0329786 -0.196916 7.75249 0 0 255
0.0182033 -0.198861 3.9355 0 0 255
0.00374616 -0.200765 0.796034 0 0 255
0.00308661 -0.200851 6.38435 0 0 255
0.0346817 -0.196692 5.75623 0 0 255
0.0319529 -0.197051 5.79856 0 0 255
0.00890568 -0.200085 1.87156 0 0 255
0.00466122 -0.200644 6.25085 0 0 255
0.03489 -0.196665 5.85824 0 0 255
0.0074133 -0.200282 7.53 0 0 255
0.00815842 -0.200184 7.16292 0 0 255
0.0125336 -0.199608 7.07528 0 0 255
0.0331568 -0.196893 4.86644 0 0 255
0.0335041 -0.196847 5.78406 0 0 255
0.00166872 -0.201038 1.01153 0 0 255
0.0181857 -0.198864 5.12919 0 0 255
0.0214026 -0.19844 3.90195 0 0 255
-0.000195823 -0.201284 3.06917 0 0 255
0.0182942 -0.198849 5.09526 0 0 255
0.0228769 -0.198246 7.59446 0 0 255
0.0128618 -0.199565 5.88418 0 0 255
0.0255681 -0.197892 3.98851 0 0 255
0.0248345 -0.197988 3.5346 0 0 255
0.0300894 -0.197297 4.37927 0 0 255
0.00934852 -0.200027 0.164905 0 0 255
0.00490246 -0.200612 1.04776 0 0 255
0.0289197 -0.197451 7.69137 0 0 255
0.0471546 -0.19505 7.71332 0 0 255
0.00424616 -0.200699 7.26503 0 0 255
0.011209 -0.199782 3.26881 0 0 255
0.0206372 -0.198541 4.5381 0 0 255
0.0141878 -0.19939 2.09375 0 0 255
0.0154706 -0.199221 6.07482 0 0 255
0.00377047 -0.200761 1.86494 0 0 255
0.0133363 -0.199502 3.0445 0 0 255
0.00126635 -0.201091 3.42376 0 0 255
0.0306897 -0.197217 4.54033 0 0 255
0.0121325 -0.199661 7.40498 0 0 255
0.019193 -0.198731 3.63515 0 0 255
0.00373977 -0.200765 6.13392 0 0 255
0.0247469 -0.198 4.72275 0 0 255
0.00183218 -0.201017 2.43626 0 0 255
0.0239943 -0.198099 6.71109 0 0 255
0.0224354 -0.198304 3.08467 0 0 255
0.00817391 -0.200182 5.5923 0 0 255
0.035328 -0.196607 5.28022 0 0 255
0.0183291 -0.198845 4.78338 0 0 255
0.000581075 -0.201181 2.17219 0 0 255
0.0275343 -0.197633 3.75329 0 0 255
0.0203352 -0.198581 7.77876 0 0 255
0.00127195 -0.20109 1.74213 0 0 255
0.00381074 -0.200756 5.42616 0 0 255
0.0391926 -0.196098 5.73777 0 0 255
0.00919143 -0.200048 4.66966 0 0 255
0.0094964 -0.200008 3.86621 0 0 255
0.0422439 -0.195696 7.27359 0 0 255
0.0204008 -0.198572 6.87031 0 0 255
0.00685428 -0.200355 3.71405 0 0 255
0.0412493 -0.195827 6.20514 0 0 255
-0.00022852 -0.201288 5.38472 0 0 255
0.0108782 -0.199826 3.49463 0 0 255
0.014991 -0.199284 1.8985 0 0 255
0.0162719 -0.199116 1.98066 0 0 255
0.0420005 -0.195728 7.42163 0 0 255
0.00867817 -0.200115 1.82348 0 0 255
0.0166066 -0.199072 5.83781 0 0 255
0.0137989 -0.199441 6.13028 0 0 255
0.0232417 -0.198198 6.54093 0 0 255
0.00516071 -0.200578 6.19985 0 0 255
0.00049919 -0.201192 6.52234 0 0 255
0.0273238 -0.197661 7.22865 0 0 255
0.0374721 -0.196325 5.85129 0 0 255
9.94561e-05 -0.201245 0.333288 0 0 255
0.0102216 -0.199912 4.0523 0 0 255
0.000735324 -0.201161 2.65443 0 0 255
0.00848445 -0.200141 0.229336 0 0 255
0.00693773 -0.200344 0.632251 0 0 255
0.0100061 -0.199941 6.07035 0 0 255
0.0349853 -0.196652 6.53009 0 0 255
0.0299891 -0.19731 7.58317 0 0 255
0.0427793 -0.195626 6.58871 0 0 255
0.00688723 -0.200351 7.59879 0 0 255
0.0398929 -0.196006 6.20232 0 0 255
0.0222474 -0.198329 3.03435 0 0 255
0.00970113 -0.199981 5.69371 0 0 255
0.00198052 -0.200997 -0.17663 0 0 255
0.0341714 -0.196759 7.24679 0 0 255
0.0410377 -0.195855 6.7575 0 0 255
0.0060522 -0.200461 5.74752 0 0 255
0.0189602 -0.198762 7.45253 0 0 255
0.00764284 -0.200252 0.310736 0 0 255
0.0195933 -0.198678 2.34793 0 0 255
0.018157 -0.198867 2.47645 0 0 255
0.0349317 -0.196659 7.01148 0 0 255
0.00552662 -0.20053 3.05124 0 0 255
0.0189147 -0.198768 6.14559 0 0 255
0.00634825 -0.200422 -0.161363 0 0 255
0.0465738 -0.195126 7.05625 0 0 255
0.00266524 -0.200907 -0.145154 0 0 255
0.00336874 -0.200814 0.163535 0 0 255
0.0209107 -0.198505 6.4321 0 0 255
0.0160545 -0.199144 5.02848 0 0 255
0.0259326 -0.197844 4.53786 0 0 255
0.0110564 -0.199802 5.36322 0 0 255
0.0202499 -0.198592 4.59086 0 0 255
0.0163476 -0.199106 6.62546 0 0 255
0.016109 -0.199137 4.01366 0 0 255
0.00558499 -0.200523 1.10032 0 0 255
0.000747691 -0.201159 4.26113 0 0 255
0.0143358 -0.19937 1.26495 0 0 255
0.0451201 -0.195318 7.70778 0 0 255
0.000733885 -0.201161 -0.914858 0 0 255
0.0162034 -0.199125 6.51615 0 0 255
0.0299808 -0.197311 7.77809 0 0 255
0.00986816 -0.199959 4.08461 0 0 255
0.0301845 -0.197284 7.37156 0 0 255
0.00808384 -0.200194 3.60986 0 0 255
0.00140533 -0.201073 3.81914 0 0 255
0.0475345 -0.195 7.85051 0 0 255
-0.000203184 -0.201285 1.96139 0 0 255
0.0118531 -0.199697 7.8299 0 0 255
0.0201541 -0.198605 5.57533 0 0 255
0.0123407 -0.199633 2.97592 0 0 255
0.00327479 -0.200827 4.80313 0 0 255
0.00658261 -0.200391 -0.259062 0 0 255
0.00108713 -0.201115 7.64088 0 0 255
0.0226133 -0.198281 3.60508 0 0 255
0.00951896 -0.200005 6.23448 0 0 255
0.00523041 -0.200569 1.09525 0 0 255
0.0128184 -0.19957 5.72565 0 0 255
0.00541185 -0.200545 4.38718 0 0 255
0.00898905 -0.200074 7.01934 0 0 255
0.02909 -0.197428 4.9687 0 0 255
0.00221384 -0.200966 5.42289 0 0 255
0.000514969 -0.20119 6.72792 0 0 255
0.014682 -0.199325 7.34611 0 0 255
0.0218238 -0.198385 3.16586 0 0 255
0.0117162 -0.199715 1.48058 0 0 255
0.0435334 -0.195527 7.45739 0 0 255
0.0137185 -0.199452 1.08782 0 0 255
0.0145366 -0.199344 3.93163 0 0 255
0.0346472 -0.196696 4.86078 0 0 255
0.0149286 -0.199292 3.15299 0 0 255
0.0111069 -0.199796 7.75032 0 0 255
0.0090778 -0.200063 1.42175 0 0 255
0.0187666 -0.198787 6.65738 0 0 255
0.00278267 -0.200891 -0.345582 0 0 255
0.0145416 -0.199343 4.57567 0 0 255
0.00965513 -0.199987 2.68282 0 0 255
0.00415968 -0.20071 6.12273 0 0 255
0.00833398 -0.200161 6.67894 0 0 255
0.00747044 -0.200274 3.55934 0 0 255
0.025116 -0.197951 6.91338 0 0 255
0.00150116 -0.20106 3.11095 0 0 255
0.022518 -0.198293 7.52589 0 0 255
0.00526631 -0.200565 2.49636 0 0 255
0.0139203 -0.199425 4.81438 0 0 255
0.0183425 -0.198843 3.05125 0 0 255
0.00190195 -0.201007 7.47196 0 0 255
0.0128281 -0.199569 4.38705 0 0 255
0.0361437 -0.196499 6.68467 0 0 255
0.00674841 -0.200369 2.79582 0 0 255
0.0094733 -0.200011 0.750249 0 0 255
0.0504312 -0.194618 7.88904 0 0 255
0.0410756 -0.19585 6.29309 0 0 255
0.0394881 -0.196059 6.23413 0 0 255
0.0391637 -0.196102 7.15281 0 0 255
0.00459642 -0.200653 3.5682 0 0 255
0.0115185 -0.199741 6.78306 0 0 255
0.00740889 -0.200282 0.207463 0 0 255
0.00245758 -0.200934 4.58174 0 0 255
0.0214423 -0.198435 5.92094 0 0 255
0.000908811 -0.201138 -0.229602 0 0 255
0.0151801 -0.199259 6.41212 0 0 255
0.0225313 -0.198292 6.96801 0 0 255
0.0346882 -0.196691 5.02166 0 0 255
0.0109159 -0.199821 6.27438 0 0 255
0.0426073 -0.195648 7.85789 0 0 255
0.0474221 -0.195015 7.87193 0 0 255
0.0199042 -0.198637 2.59516 0 0 255
0.0264907 -0.19777 4.40271 0 0 255
0.0324019 -0.196992 7.06492 0 0 255
0.0204887 -0.19856 7.73785 0 0 255
0.00494142 -0.200607 1.62513 0 0 255
0.00025166 -0.201225 -0.284956 0 0 255
0.0254623 -0.197906 4.2501 0 0 255
0.0199738 -0.198628 3.50857 0 0 255
0.0164834 -0.199088 4.25573 0 0 255
0.0164546 -0.199092 7.06659 0 0 255
0.018487 -0.198824 2.68241 0 0 255
0.00862874 -0.200122 4.93994 0 0 255
0.0149876 -0.199285 3.89958 0 0 255
0.0324609 -0.196984 6.05394 0 0 255
0.0104423 -0.199883 4.01264 0 0 255
0.0128397 -0.199567 5.4816 0 0 255
0.0193678 -0.198708 4.70946 0 0 255
0.012862 -0.199565 4.41435 0 0 255
0.000306174 -0.201218 2.27028 0 0 255
0.0347888 -0.196678 6.61106 0 0 255
0.0175253 -0.198951 6.15271 0 0 255
0.0133718 -0.199497 4.18113 0 0 255
0.0124244 -0.199622 1.16148 0 0 255
0.0195786 -0.19868 6.32777 0 0 255
0.0398331 -0.196014 6.14752 0 0 255
0.0222016 -0.198335 5.8413 0 0 255
0.000385992 -0.201207 -0.0972774 0 0 255
0.0281216 -0.197556 6.31346 0 0 255
0.00993656 -0.19995 1.63991 0 0 255
0.0172957 -0.198981 5.16107 0 0 255
0.00796913 -0.200209 5.79331 0 0 255
0.0040798 -0.200721 6.85771 0 0 255
0.0132568 -0.199513 3.97458 0 0 255
0.027229 -0.197673 3.95814 0 0 255
0.000707306 -0.201165 7.4781 0 0 255
0.00409562 -0.200719 7.37378 0 0 255
0.00381733 -0.200755 3.09985 0 0 255
0.00498395 -0.200602 5.58596 0 0 255
0.0411725 -0.195837 7.78307 0 0 255
0.0501218 -0.194659 7.8912 0 0 255
0.0266632 -0.197748 6.25038 0 0 255
0.0135969 -0.199468 7.6471 0 0 255
0.00136625 -0.201078 5.43144 0 0 255
0.00245331 -0.200935 6.39406 0 0 255
0.0171232 -0.199004 7.42499 0 0 255
0.00435079 -0.200685 6.98933 0 0 255
0.0122949 -0.199639 4.28439 0 0 255
0.00925462 -0.200039 4.51605 0 0 255
0.0316019 -0.197097 6.2009 0 0 255
0.0353013 -0.19661 6.82096 0 0 255
0.0210828 -0.198482 7.13411 0 0 255
0.00621342 -0.20044 1.79119 0 0 255
0.0209278 -0.198503 6.50212 0 0 255
0.0136613 -0.199459 3.5102 0 0 255
0.0295049 -0.197373 4.79158 0 0 255
0.00433408 -0.200687 3.02311 0 0 255
0.00625511 -0.200434 6.61787 0 0 255
0.0328079 -0.196939 5.87765 0 0 255
0.0316741 -0.197088 7.09774 0 0 255
0.0200165 -0.198623 6.00943 0 0 255
0.00107512 -0.201116 1.77819 0 0 255
0.0109034 -0.199822 3.5341 0 0 255
0.0293897 -0.197389 4.78885 0 0 255
0.034892 -0.196664 5.82006 0 0 255
0.00137773 -0.201076 4.80127 0 0 255
0.0134177 -0.199491 3.78362 0 0 255
0.0271207 -0.197687 3.9772 0 0 255
0.0167765 -0.199049 2.67242 0 0 255
0.0243906 -0.198047 3.94989 0 0 255
0.00167862 -0.201037 0.339081 0 0 255
0.0116789 -0.19972 6.57064 0 0 255
0.0324924 -0.19698 6.94611 0 0 255
0.0103951 -0.199889 5.76027 0 0 255
0.0209089 -0.198505 2.61619 0 0 255
0.00883272 -0.200095 3.48686 0 0 255
0.0220094 -0.19836 6.87942 0 0 255
0.0158975 -0.199165 5.51407 0 0 255
0.0144208 -0.199359 3.80915 0 0 255
0.00886984 -0.20009 1.14291 0 0 255
0.0355695 -0.196575 7.33197 0 0 255
0.00465516 -0.200645 7.42127 0 0 255
0.0186105 -0.198808 7.70794 0 0 255
0.00879688 -0.2001 5.8459 0 0 255
0.00120629 -0.201099 6.67759 0 0 255
0.0280821 -0.197561 4.68416 0 0 255
0.00569748 -0.200508 3.77651 0 0 255
0.000491645 -0.201193 3.27995 0 0 255
0.00408461 -0.20072 0.703529 0 0 255
0.0250199 -0.197964 3.5194 0 0 255
0.0125471 -0.199606 6.49949 0 0 255
0.0109912 -0.199811 4.27025 0 0 255
0.000680257 -0.201168 1.40772 0 0 255
0.0180507 -0.198881 1.76069 0 0 255
0.0046923 -0.20064 0.607177 0 0 255
0.000154857 -0.201237 0.933599 0 0 255
0.0221512 -0.198342 2.5474 0 0 255
0.0161732 -0.199129 4.93462 0 0 255
0.0445714 -0.19539 7.40538 0 0 255
0.000822523 -0.20115 5.17519 0 0 255
0.0180753 -0.198878 5.84004 0 0 255
0.0044284 -0.200675 4.84401 0 0 255
0.0394348 -0.196066 6.01869 0 0 255
0.0242375 -0.198067 6.61318 0 0 255
0.0235149 -0.198162 4.08338 0 0 255
0.00829928 -0.200165 5.09552 0 0 255
0.0187994 -0.198783 6.6333 0 0 255
0.0327622 -0.196945 5.86807 0 0 255
0.0373955 -0.196335 6.3403 0 0 255
0.0380939 -0.196243 7.75496 0 0 255
0.0244969 -0.198033 4.35713 0 0 255
-2.64095e-05 -0.201261 6.75067 0 0 255
0.0247814 -0.197995 5.2843 0 0 255
0.0165548 -0.199078 5.90503 0 0 255
0.000838734 -0.201147 -1.00993 0 0 255
0.0140817 -0.199404 4.05897 0 0 255
0.00702031 -0.200334 7.17905 0 0 255
0.0367204 -0.196424 7.09058 0 0 255
0.0391213 -0.196107 6.81669 0 0 255
0.0324605 -0.196984 4.67816 0 0 255
0.0239314 -0.198107 4.62969 0 0 255
0.0145353 -0.199344 4.09427 0 0 255
0.0250507 -0.19796 3.97426 0 0 255
0.0346823 -0.196692 7.28852 0 0 255
0.00145528 -0.201066 7.59586 0 0 255
0.0140795 -0.199404 7.53991 0 0 255
0.0338038 -0.196807 5.60764 0 0 255
0.024647 -0.198013 4.86595 0 0 255
0.0020952 -0.200982 3.35675 0 0 255
0.000934442 -0.201135 0.155838 0 0 255
0.0363153 -0.196477 7.52455 0 0 255
0.0346982 -0.19669 4.97106 0 0 255
0.0107842 -0.199838 6.52383 0 0 255
0.00781823 -0.200229 4.19558 0 0 255
0.0342012 -0.196755 6.67252 0 0 255
0.0290388 -0.197435 5.83077 0 0 255
0.0136259 -0.199464 5.07729 0 0 255
0.0332984 -0.196874 7.35744 0 0 255
0.00603572 -0.200463 3.184 0 0 255
0.00693594 -0.200345 4.43252 0 0 255
0.0193575 -0.198709 5.62673 0 0 255
0.0196106 -0.198676 2.14942 0 0 255
0.0297367 -0.197343 7.40481 0 0 255
0.00225459 -0.200961 0.679818 0 0 255
0.0335546 -0.19684 7.31437 0 0 255
0.0405525 -0.195919 7.06595 0 0 255
0.0254865 -0.197902 7.15842 0 0 255
0.00214967 -0.200975 2.98826 0 0 255
0.0356899 -0.196559 5.01029 0 0 255
0.00429926 -0.200692 5.25324 0 0 255
0.0204085 -0.198571 7.19833 0 0 255
0.0378672 -0.196273 7.21222 0 0 255
0.00246188 -0.200934 0.321827 0 0 255
0.0483562 -0.194892 7.43744 0 0 255
-0.000208511 -0.201285 0.657221 0 0 255
0.0167633 -0.199051 2.0329 0 0 255
0.00282749 -0.200886 1.2938 0 0 255
0.0215288 -0.198424 6.09724 0 0 255
0.0160685 -0.199142 1.63659 0 0 255
0.0192097 -0.198729 6.64177 0 0 255
0.0192072 -0.198729 4.20241 0 0 255
0.0105027 -0.199875 1.45502 0 0 255
0.0191538 -0.198736 6.50111 0 0 255
0.0396832 -0.196033 7.73077 0 0 255
0.00880285 -0.200099 0.0691782 0 0 255
0.00838948 -0.200153 1.54781 0 0 255
0.0375373 -0.196316 7.1466 0 0 255
0.044095 -0.195453 7.19547 0 0 255
0.00876267 -0.200104 4.34718 0 0 255
0.000177503 -0.201234 3.19121 0 0 255
0.0437948 -0.195492 6.97233 0 0 255
0.00349843 -0.200797 2.36789 0 0 255
0.0331446 -0.196894 5.76471 0 0 255
0.0497263 -0.194711 7.74398 0 0 255
0.0127808 -0.199575 6.8032 0 0 255
0.0181819 -0.198864 4.86588 0 0 255
0.0085321 -0.200135 3.61159 0 0 255
0.00456191 -0.200657 6.31057 0 0 255
0.00805894 -0.200197 4.25122 0 0 255
0.00187522 -0.201011 2.15112 0 0 255
0.00171638 -0.201032 0.422841 0 0 255
0.0136648 -0.199459 6.70901 0 0 255
0.0164883 -0.199087 3.32761 0 0 255
0.0174684 -0.198958 3.7183 0 0 255
0.0457384 -0.195236 7.73225 0 0 255
0.0150841 -0.199272 7.06581 0 0 255
0.000926279 -0.201136 3.22155 0 0 255
0.0183106 -0.198847 4.58897 0 0 255
0.000240919 -0.201226 6.97917 0 0 255
0.00795503 -0.200211 0.569354 0 0 255
0.0181254 -0.198872 2.55609 0 0 255
0.0282262 -0.197542 4.01323 0 0 255
0.0264953 -0.19777 5.98565 0 0 255
0.0137204 -0.199452 5.09815 0 0 255
0.0145115 -0.199347 1.76035 0 0 255
0.0129153 -0.199558 7.72408 0 0 255
0.00440847 -0.200677 2.53212 0 0 255
0.0193574 -0.198709 3.23295 0 0 255
0.0144577 -0.199354 1.42977 0 0 255
0.0436529 -0.195511 6.91926 0 0 255
0.0268457 -0.197724 4.61155 0 0 255
0.0366768 -0.196429 5.21571 0 0 255
0.0165295 -0.199082 5.32335 0 0 255
0.0296209 -0.197358 4.2842 0 0 255
0.0246108 -0.198018 4.42497 0 0 255
0.00465263 -0.200645 2.05754 0 0 255
0.0216974 -0.198401 4.8899 0 0 255
0.0218353 -0.198383 7.44245 0 0 255
0.0134278 -0.19949 7.62167 0 0 255
0.00541724 -0.200545 3.30874 0 0 255
9.891e-05 -0.201245 -0.322685 0 0 255
0.0105696 -0.199866 1.05783 0 0 255
0.0187874 -0.198784 6.19003 0 0 255
0.0113796 -0.19976 5.30604 0 0 255
0.0337258 -0.196818 7.82433 0 0 255
0.00375464 -0.200764 1.90749 0 0 255
0.0115212 -0.199741 1.32815 0 0 255
0.0155765 -0.199207 5.34544 0 0 255
0.0183006 -0.198849 5.70373 0 0 255
0.00961262 -0.199992 5.0356 0 0 255
0.00829336 -0.200166 2.00817 0 0 255
0.0181026 -0.198875 3.94961 0 0 255
0.028753 -0.197472 6.60668 0 0 255
0.0285707 -0.197496 6.11605 0 0 255
0.00755735 -0.200263 3.35864 0 0 255
0.0180594 -0.19888 4.02265 0 0 255
0.0118404 -0.199699 0.805835 0 0 255
0.0169121 -0.199031 4.46893 0 0 255
0.00694676 -0.200343 0.637942 0 0 255
0.0247926 -0.197994 5.81763 0 0 255
0.0299851 -0.19731 5.14705 0 0 255
0.0310625 -0.197168 6.30054 0 0 255
0.0109625 -0.199815 4.34169 0 0 255
0.00411476 -0.200716 6.78398 0 0 255
0.0222393 -0.19833 3.3333 0 0 255
0.00795389 -0.200211 4.10345 0 0 255
0.0092251 -0.200043 7.64162 0 0 255
0.00226311 -0.20096 3.30532 0 0 255
0.00403823 -0.200726 3.58718 0 0 255
0.00239255 -0.200943 -0.135008 0 0 255
0.0112495 -0.199777 3.19642 0 0 255
0.0278874 -0.197586 3.92232 0 0 255
0.0452763 -0.195297 6.98544 0 0 255
0.00435012 -0.200685 0.846857 0 0 255
0.0183938 -0.198836 4.53556 0 0 255
0.00383177 -0.200753 6.04069 0 0 255
0.0146001 -0.199336 6.64345 0 0 255
0.0238719 -0.198115 4.95423 0 0 255
0.050318 -0.194633 7.78663 0 0 255
0.0268386 -0.197724 6.79169 0 0 255
0.000638177 -0.201174 5.5407 0 0 255
0.00127509 -0.20109 2.94949 0 0 255
0.0114324 -0.199753 1.72185 0 0 255
0.0113201 -0.199768 3.62314 0 0 255
-7.15994e-05 -0.201267 6.47604 0 0 255
2.29044e-05 -0.201255 4.32925 0 0 255
0.00218903 -0.20097 -1.15753 0 0 255
0.0206598 -0.198538 4.10751 0 0 255
0.0167081 -0.199058 3.30175 0 0 255
0.0278373 -0.197593 4.08688 0 0 255
0.0122733 -0.199642 7.19977 0 0 255
0.0290281 -0.197436 7.45307 0 0 255
0.0126997 -0.199586 3.57372 0 0 255
0.0394687 -0.196062 6.04903 0 0 255
0.00196202 -0.201 -0.701486 0 0 255
0.0152453 -0.199251 3.23232 0 0 255
0.0246899 -0.198007 5.82852 0 0 255
0.0176609 -0.198933 5.65291 0 0 255
0.0126368 -0.199594 6.76099 0 0 255
0.00538615 -0.200549 1.88372 0 0 255
0.0379886 -0.196257 7.69346 0 0 255
0.0170483 -0.199013 3.86243 0 0 255
0.0148384 -0.199304 4.77865 0 0 255
0.0107089 -0.199848 2.1221 0 0 255
0.0196888 -0.198666 5.46967 0 0 255
0.0168668 -0.199037 5.81121 0 0 255
0.0144421 -0.199357 6.77302 0 0 255
0.00362956 -0.20078 1.34672 0 0 255
0.00655788 -0.200394 2.87417 0 0 255
0.02171 -0.1984 4.69545 0 0 255
0.019017 -0.198754 4.04603 0 0 255
0.0402922 -0.195953 6.41365 0 0 255
0.0292441 -0.197408 4.52427 0 0 255
0.0121081 -0.199664 2.54709 0 0 255
0.00204213 -0.200989 2.68387 0 0 255
0.0136002 -0.199467 1.00822 0 0 255
0.0185677 -0.198813 6.11515 0 0 255
0.0410492 -0.195854 6.87534 0 0 255
0.00167128 -0.201038 -0.549601 0 0 255
0.0240776 -0.198088 4.08721 0 0 255
0.0234042 -0.198177 6.29724 0 0 255
0.00276027 -0.200894 4.45802 0 0 255
0.0213283 -0.19845 5.41574 0 0 255
0.0150703 -0.199274 4.81153 0 0 255
0.0126914 -0.199587 2.01795 0 0 255
0.0129775 -0.199549 7.48234 0 0 255
0.02877 -0.19747 6.52245 0 0 255
0.0266726 -0.197746 3.66393 0 0 255
0.00967369 -0.199984 3.54364 0 0 255
0.0164167 -0.199097 6.15604 0 0 255
0.00785217 -0.200224 3.31989 0 0 255
0.0142889 -0.199377 7.54953 0 0 255
0.00322696 -0.200833 5.06901 0 0 255
0.026412 -0.197781 7.42989 0 0 255
0.007707 -0.200243 6.6232 0 0 255
0.0139848 -0.199417 1.64042 0 0 255
0.0254088 -0.197913 4.83426 0 0 255
0.00869355 -0.200113 7.7978 0 0 255
0.0118962 -0.199692 2.3772 0 0 255
0.0163961 -0.199099 7.62332 0 0 255
0.00307146 -0.200853 4.94247 0 0 255
0.00273134 -0.200898 1.86131 0 0 255
0.0122693 -0.199643 1.53715 0 0 255
0.0122865 -0.19964 0.755173 0 0 255
0.0505815 -0.194599 7.87902 0 0 255
0.00108757 -0.201115 -0.340423 0 0 255
0.0174232 -0.198964 7.33846 0 0 255
0.0105602 -0.199868 4.39712 0 0 255
0.012571 -0.199603 6.93115 0 0 255
0.0246623 -0.198011 4.04449 0 0 255
0.0105483 -0.199869 7.51502 0 0 255
0.0132077 -0.199519 5.43239 0 0 255
0.0187582 -0.198788 4.04772 0 0 255
