ply
format ascii 1.0
comment Created by Open3D
element vertex 1229
property double x
property double y
property double z
property uchar red
property uchar green
property uchar blue
end_header
-0.019643 0.00294812 -0.149451 0 0 255
-0.0196334 0.00302548 0.117909 0 0 255
-0.0197172 0.00234886 -0.00964799 0 0 255
-0.0199903 0.000144331 0.0746148 0 0 255
-0.0199038 0.000842283 0.466651 0 0 255
-0.0195466 0.00372594 0.0204478 0 0 255
-0.0196716 0.00271686 -0.0333725 0 0 255
-0.0199418 0.000535256 -0.120772 0 0 255
-0.0199334 0.000603816 0.407308 0 0 255
-0.0198102 0.00159779 -0.00387341 0 0 255
-0.0199705 0.000303963 -0.0964956 0 0 255
-0.0196473 0.00291346 0.191388 0 0 255
-0.0195226 0.0039196 -0.157764 0 0 255
-0.0196185 0.00314547 -0.152938 0 0 255
-0.0196492 0.00289765 0.0457691 0 0 255
-0.0198299 0.00143926 0.247187 0 0 255
-0.0198063 0.00162947 0.419094 0 0 255
-0.0199785 0.000239644 0.309592 0 0 255
-0.0195098 0.00402347 -0.146986 0 0 255
-0.0200224 -0.000115251 0.135852 0 0 255
-0.0197291 0.00225248 0.297241 0 0 255
-0.0198501 0.00127596 -0.0619133 0 0 255
-0.0200236 -0.00012453 0.00344744 0 0 255
-0.0199999 6.65806e-05 0.514458 0 0 255
-0.0200113 -2.55698e-05 0.431112 0 0 255
-0.0199802 0.000225287 0.221355 0 0 255
-0.0196135 0.00318587 -0.000498597 0 0 255
-0.0198451 0.00131643 0.428613 0 0 255
-0.0198667 0.00114214 0.282554 0 0 255
-0.0195925 0.00335591 0.0543532 0 0 255
-0.0196779 0.00266602 0.127602 0 0 255
-0.0199798 0.000228839 -0.136371 0 0 255
-0.0196781 0.00266449 -0.120751 0 0 255
-0.0195967 0.00332194 0.109262 0 0 255
-0.0195115 0.00378604 0.721467 0 0 255
-0.0196823 0.00253135 0.579032 0 0 255
-0.0194297 0.00458836 0.123396 0 0 255
-0.0197599 0.00198676 0.430938 0 0 255
-0.0197493 0.00207009 0.422311 0 0 255
-0.0198022 0.0016295 0.549896 0 0 255
-0.0194517 0.00430079 0.521708 0 0 255
-0.0197672 0.00184825 0.706187 0 0 255
-0.0197699 0.00191043 0.432238 0 0 255
-0.0197309 0.0021831 0.510414 0 0 255
-0.0199193 0.000696695 0.692907 0 0 255
-0.0194653 0.00429162 0.210514 0 0 255
-0.0194313 0.004643 -0.097829 0 0 255
-0.0195781 0.00345858 0.132201 0 0 255
-0.0193939 0.00482451 0.241363 0 0 255
-0.0196757 0.00266519 0.30463 0 0 255
-0.0194112 0.0047593 0.0231062 0 0 255
-0.0197594 0.00197714 0.477518 0 0 255
-0.0194032 0.00461756 0.690967 0 0 255
-0.0195394 0.00365351 0.458716 0 0 255
-0.0194833 0.00417369 0.149197 0 0 255
-0.0198031 0.00165039 0.458268 0 0 255
-0.0194543 0.00421584 0.737064 0 0 255
-0.0195978 0.00318588 0.537664 0 0 255
-0.0197405 0.00207391 0.629947 0 0 255
-0.0196957 0.0024273 0.586419 0 0 255
-0.019741 0.00206805 0.638637 0 0 255
-0.0194221 0.00452751 0.51463 0 0 255
-0.0195335 0.00369493 0.470844 0 0 255
-0.0194491 0.00448011 -0.0061927 0 0 255
-0.0195351 0.00367889 0.482147 0 0 255
-0.0193865 0.00475819 0.646954 0 0 255
-0.0198109 0.00153556 0.643485 0 0 255
-0.0199087 0.000760172 0.750115 0 0 255
-0.0195499 0.00358794 0.412117 0 0 255
-0.0196244 0.00309483 0.17236 0 0 255
-0.0196859 0.00248437 0.645705 0 0 255
-0.0196059 0.00313177 0.513334 0 0 255
-0.0194678 -0.00435436 0.7054 0 0 255
-0.0200137 -0.000207936 -0.0203144 0 0 255
-0.0196813 -0.00273263 0.732678 0 0 255
-0.0197178 -0.00245574 0.374781 0 0 255
-0.0199484 -0.00070421 0.770322 0 0 255
-0.0197703 -0.00205677 0.369811 0 0 255
-0.019625 -0.00316028 0.504612 0 0 255
-0.0199367 -0.000792696 0.182172 0 0 255
-0.0198205 -0.00167537 0.430999 0 0 255
-0.0197037 -0.00256293 0.760955 0 0 255
-0.0198164 -0.00170706 0.213674 0 0 255
-0.0199682 -0.000554075 0.00578026 0 0 255
-0.0194733 -0.004313 0.615998 0 0 255
-0.019992 -0.000372931 0.48686 0 0 255
-0.0198397 -0.00153012 0.30044 0 0 255
-0.0198561 -0.00140534 0.182888 0 0 255
-0.0195738 -0.0035492 0.528432 0 0 255
-0.0196826 -0.00272326 0.479476 0 0 255
-0.0198061 -0.00178515 0.51903 0 0 255
-0.0194887 -0.00419581 0.731178 0 0 255
-0.0197646 -0.00209984 0.228455 0 0 255
-0.0199459 -0.000723405 0.562163 0 0 255
-0.0197256 -0.00239678 0.405994 0 0 255
-0.0197301 -0.00236231 0.385193 0 0 255
-0.0196539 -0.00294136 0.75586 0 0 255
-0.0194467 -0.00451462 0.652092 0 0 255
-0.0199519 -0.000677552 0.675864 0 0 255
-0.0200217 -0.000147243 0.03473 0 0 255
-0.0199294 -0.000848685 0.604408 0 0 255
-0.0194278 -0.00465821 0.726672 0 0 255
-0.0199102 -0.000994211 0.171295 0 0 255
-0.0198937 -0.00111971 0.0421189 0 0 255
-0.0196731 -0.00279559 0.599605 0 0 255
-0.0198473 -0.00147187 0.425092 0 0 255
-0.0200161 -0.00019022 0.229149 0 0 255
-0.0196152 -0.00323513 0.549198 0 0 255
-0.0198708 -0.00129322 0.40187 0 0 255
-0.0135268 -0.000885952 0.791332 0 0 255
0.016008 -0.000546032 0.791332 0 0 255
-0.000246998 0.000699141 0.791332 0 0 255
0.00673008 0.00369787 0.791332 0 0 255
0.0127086 0.004593 0.791332 0 0 255
-0.0195783 -0.003515 0.383188 0 0 255
-0.0193519 -0.00523469 0.318734 0 0 255
-0.0193957 -0.00490225 0.468913 0 0 255
-0.0195183 -0.00397071 0.505852 0 0 255
-0.0193915 -0.00493435 0.297742 0 0 255
-0.0198488 -0.00146065 -0.0513256 0 0 255
-0.0197138 -0.00248599 -0.00805485 0 0 255
-0.0194342 -0.00460957 0.524629 0 0 255
-0.019635 -0.00308466 0.277041 0 0 255
-0.0198056 -0.00178897 0.109821 0 0 255
-0.0196481 -0.00298544 -0.111387 0 0 255
-0.0194376 -0.00458428 0.280102 0 0 255
-0.019403 -0.00484679 0.222998 0 0 255
-0.0193912 -0.00493678 0.396684 0 0 255
-0.0194092 -0.00479979 -0.092043 0 0 255
-0.0196343 -0.00309032 0.131737 0 0 255
-0.0194749 -0.00430094 0.168663 0 0 255
-0.0194171 -0.00474008 0.228147 0 0 255
-0.0193618 -0.00515979 -0.050629 0 0 255
-0.0193887 -0.00495532 0.44927 0 0 255
-0.0194297 -0.00464402 0.163468 0 0 255
-0.0196983 -0.00260382 0.146977 0 0 255
-0.0198545 -0.00141713 0.0660854 0 0 255
-0.0195561 -0.00368423 0.284711 0 0 255
-0.0195287 -0.00389177 0.352838 0 0 255
-0.0197851 -0.00194447 0.15885 0 0 255
-0.0194289 -0.00465046 0.445098 0 0 255
-0.0195588 -0.00366328 0.111065 0 0 255
-0.0194992 -0.00411642 0.253603 0 0 255
-0.0195962 -0.00337912 -0.0679246 0 0 255
-0.0193826 -0.00500217 0.438731 0 0 255
-0.019754 -0.00218035 -0.0794518 0 0 255
-0.0197709 -0.00205268 -0.149835 0 0 255
-0.0193573 -0.00519384 -0.0357005 0 0 255
-0.0195606 -0.00364992 0.387115 0 0 255
-0.019437 -0.00458836 0.601989 0 0 255
-0.0194491 -0.00449703 0.466672 0 0 255
-0.0137174 -0.000165175 -0.161965 0 0 255
-0.0186731 0.00670132 0.0718063 0 0 255
-0.0182895 0.00767255 -0.110101 0 0 255
-0.0192812 0.00518778 0.612979 0 0 255
-0.0187225 0.00658749 0.206233 0 0 255
-0.0189759 0.00596003 0.462788 0 0 255
-0.0184363 0.00732563 0.201855 0 0 255
-0.0179375 0.00859069 -0.0137168 0 0 255
-0.0190703 0.00565901 -0.0977246 0 0 255
-0.0185989 0.00687919 -0.0604614 0 0 255
-0.0192546 0.00524891 0.5407 0 0 255
-0.0187014 0.00661783 -0.0304165 0 0 255
-0.0181218 0.00811533 -0.0109688 0 0 255
-0.0189715 0.00598352 0.57972 0 0 255
-0.0188969 0.0061213 0.0475898 0 0 255
-0.0192995 0.00511634 0.377718 0 0 255
-0.0188221 0.00632371 0.138398 0 0 255
-0.0192189 0.00530977 0.237146 0 0 255
-0.0192112 0.0053723 0.652748 0 0 255
-0.0182843 0.00769507 -0.0209985 0 0 255
-0.0193556 0.00496948 0.356858 0 0 255
-0.0193469 0.00502226 0.653066 0 0 255
-0.0193454 0.00495379 -0.050857 0 0 255
-0.0190271 0.00579166 0.108941 0 0 255
-0.0181869 0.00795046 0.0192768 0 0 255
-0.0183131 0.00762104 -0.0179309 0 0 255
-0.0178658 0.00877091 -0.0596382 0 0 255
-0.0188833 0.00614796 -0.0334187 0 0 255
-0.0191628 0.00546321 0.321079 0 0 255
-0.0187834 0.00640333 -0.0578586 0 0 255
-0.0187159 0.00657226 -0.108813 0 0 255
-0.0181986 0.00791848 0.00146216 0 0 255
-0.0193227 0.00505986 0.410049 0 0 255
-0.0192533 0.00519156 -0.0503094 0 0 255
-0.0190408 0.0058046 0.579767 0 0 255
-0.018052 0.00829879 0.0202578 0 0 255
-0.0167774 0.00787464 -0.161965 0 0 255
-0.0189078 0.00613246 0.609553 0 0 255
-0.0191256 0.00558369 0.728212 0 0 255
-0.017843 0.00874897 0.372824 0 0 255
-0.0179788 0.00842698 0.343004 0 0 255
-0.0180785 0.00816559 0.448945 0 0 255
-0.0182279 0.00784355 0.250298 0 0 255
-0.017489 0.00953172 0.743544 0 0 255
-0.0188491 0.00625906 0.68709 0 0 255
-0.0182779 0.00769136 0.412524 0 0 255
-0.0184223 0.00734786 0.385881 0 0 255
-0.0181372 0.00800336 0.554636 0 0 255
-0.0179824 0.00844819 0.188071 0 0 255
-0.0175431 0.00947316 0.37128 0 0 255
-0.0177597 0.00897291 0.254826 0 0 255
-0.0186789 0.00665667 0.75574 0 0 255
-0.017622 0.00935037 0.0220765 0 0 255
-0.0180161 0.00837575 0.14194 0 0 255
-0.0176292 0.00919107 0.754495 0 0 255
-0.0179187 0.00849885 0.720156 0 0 255
-0.0175896 0.00938481 0.24903 0 0 255
-0.0178823 0.00866496 0.316135 0 0 255
-0.0182912 0.00758986 0.77077 0 0 255
-0.0175739 0.00941445 0.291278 0 0 255
-0.0185685 0.00691872 0.779522 0 0 255
-0.018315 0.00756081 0.624423 0 0 255
-0.0191886 0.00543505 0.709485 0 0 255
-0.0181638 0.00800007 0.240489 0 0 255
-0.0181918 0.00786231 0.602329 0 0 255
-0.017887 0.00865082 0.330574 0 0 255
-0.017649 0.00926319 0.136531 0 0 255
-0.0176363 0.00917229 0.762909 0 0 255
-0.01753 0.00944509 0.679789 0 0 255
-0.01836 0.00750622 0.344568 0 0 255
-0.0182887 0.00759612 0.769504 0 0 255
-0.0179281 0.00855612 0.307486 0 0 255
-0.0181241 0.00800665 0.700961 0 0 255
-0.018624 0.00679993 0.700848 0 0 255
0.0169979 0.00717386 0.791332 0 0 255
-0.00262127 0.00522221 0.791332 0 0 255
-0.0170537 0.00682798 0.791332 0 0 255
-0.0188814 -0.00641889 0.331364 0 0 255
-0.0177011 -0.00926835 0.643781 0 0 255
-0.019336 -0.00532126 0.0625084 0 0 255
-0.0181005 -0.00830417 0.488813 0 0 255
-0.017591 -0.00953411 0.737317 0 0 255
-0.0188182 -0.00657157 0.705381 0 0 255
-0.0176039 -0.00950305 0.724303 0 0 255
-0.0185244 -0.00728083 0.415186 0 0 255
-0.0190738 -0.00595431 0.331156 0 0 255
-0.0187771 -0.0066706 0.723778 0 0 255
-0.0193107 -0.00538254 -0.0430656 0 0 255
-0.0191547 -0.00575904 0.591004 0 0 255
-0.0189845 -0.00617008 0.12937 0 0 255
-0.0177392 -0.00917631 0.641022 0 0 255
-0.0189367 -0.00628538 0.763244 0 0 255
-0.0184441 -0.00747457 0.375955 0 0 255
-0.0190651 -0.00597527 0.577125 0 0 255
-0.0183065 -0.00780686 0.484479 0 0 255
-0.0192927 -0.00542592 0.468433 0 0 255
-0.0190568 -0.00599551 0.367472 0 0 255
-0.0191114 -0.00586356 -0.0480902 0 0 255
-0.0187228 -0.00680171 0.545904 0 0 255
-0.0185768 -0.00715418 0.666731 0 0 255
-0.0191665 -0.00573064 0.397559 0 0 255
-0.018095 -0.00831741 0.624837 0 0 255
-0.0186711 -0.00692662 0.498157 0 0 255
-0.0193294 -0.00533722 0.0303112 0 0 255
-0.0187595 -0.00671305 0.218418 0 0 255
-0.0191202 -0.00584241 0.250607 0 0 255
-0.018186 -0.00809767 0.645873 0 0 255
-0.0184802 -0.00738745 0.696187 0 0 255
-0.0185171 -0.00729842 0.423773 0 0 255
-0.0191834 -0.0056898 0.449256 0 0 255
-0.0180585 -0.00840558 0.510978 0 0 255
-0.0191422 -0.00578922 0.0243375 0 0 255
-0.0186828 -0.00689845 0.250352 0 0 255
-0.0181116 -0.00827722 0.477899 0 0 255
-0.0192596 -0.00550583 0.00117107 0 0 255
-0.00629067 -0.00732691 0.791332 0 0 255
0.0127252 -0.00388398 0.791332 0 0 255
0.0197943 0.00125027 0.749675 0 0 255
0.0195955 0.00276033 0.731379 0 0 255
0.0198804 0.000596552 -0.0220495 0 0 255
0.0198796 0.000602545 0.228738 0 0 255
0.0198962 0.000476146 0.433363 0 0 255
0.0199289 0.000227709 0.0215776 0 0 255
0.0197245 0.00178065 0.736209 0 0 255
0.0198528 0.00080557 0.141487 0 0 255
0.0199727 -0.000104662 0.397176 0 0 255
0.0195379 0.00319764 0.493593 0 0 255
0.0199413 0.000133517 0.263129 0 0 255
0.019558 0.00304488 0.750697 0 0 255
0.0194274 0.00403724 0.737081 0 0 255
0.0199679 -6.82383e-05 0.280772 0 0 255
0.0198597 0.000753361 0.178991 0 0 255
0.0196972 0.00198813 0.492748 0 0 255
0.0199489 7.62899e-05 0.63615 0 0 255
0.0198196 0.00105778 0.761451 0 0 255
0.0198803 0.000597084 0.180565 0 0 255
0.0198099 0.00113183 0.61724 0 0 255
0.0197694 0.00143973 0.396623 0 0 255
0.0196983 0.00197962 0.490888 0 0 255
0.0199008 0.000441657 0.397737 0 0 255
0.0194562 0.00381831 0.759882 0 0 255
0.0197417 0.00164984 0.206689 0 0 255
0.0194727 0.00369274 0.658382 0 0 255
0.0196138 0.00262149 0.374551 0 0 255
0.0194406 0.00393671 0.790413 0 0 255
0.0199147 0.000335538 0.23391 0 0 255
0.019936 0.00017389 0.317649 0 0 255
0.0198224 0.00103689 0.219838 0 0 255
0.0195416 0.00316991 0.698062 0 0 255
0.0197446 0.00162745 0.503496 0 0 255
0.0199003 0.000445066 0.508573 0 0 255
0.0198194 0.00105928 0.373564 0 0 255
0.0198884 0.000535338 0.192059 0 0 255
0.0199035 0.00042059 0.530739 0 0 255
0.0199747 -0.000119705 -0.0138253 0 0 255
0.0197432 -0.00189651 0.175511 0 0 255
0.0195702 -0.00321021 0.0746446 0 0 255
0.0196022 -0.0029675 -0.0978671 0 0 255
0.0195217 -0.00357862 0.146825 0 0 255
0.0197548 -0.00180842 0.0665434 0 0 255
0.0199547 -0.000290089 -0.0599456 0 0 255
0.0194402 -0.00419781 -0.0605125 0 0 255
0.0196848 -0.00234029 0.355031 0 0 255
0.0198205 -0.00130933 -0.0167523 0 0 255
0.01979 -0.00154051 0.313953 0 0 255
0.0199253 -0.000513343 0.307213 0 0 255
0.0194713 -0.00396161 -0.0163011 0 0 255
0.0197252 -0.0020329 0.0611048 0 0 255
0.0199241 -0.000522329 -0.115039 0 0 255
0.0198653 -0.000968736 -0.0542826 0 0 255
0.0199184 -0.000565342 0.57265 0 0 255
0.0193739 -0.00470138 -0.102536 0 0 255
0.0198635 -0.000982249 -0.00781672 0 0 255
0.019468 -0.00398704 0.0341023 0 0 255
0.0196815 -0.00236529 0.157218 0 0 255
0.0195599 -0.00328831 -0.0122735 0 0 255
0.0199416 -0.00038926 0.439283 0 0 255
0.0198918 -0.000767538 -0.0282499 0 0 255
0.0198382 -0.00117491 -0.0824712 0 0 255
0.0198856 -0.00081505 0.136025 0 0 255
0.0194498 -0.00412499 -0.0722327 0 0 255
0.0196622 -0.00251185 0.201271 0 0 255
0.0197581 -0.00178316 -0.0394885 0 0 255
0.0195144 -0.00363462 -0.0118112 0 0 255
0.0196902 -0.00229894 0.0734302 0 0 255
0.0195502 -0.00336235 0.135859 0 0 255
0.0199185 -0.000564988 0.223704 0 0 255
0.0198679 -0.000948797 0.340873 0 0 255
0.0197442 -0.00188861 0.29018 0 0 255
0.0199358 -0.00043358 0.466079 0 0 255
0.0195439 -0.00341012 -0.0532896 0 0 255
0.0198132 -0.00136442 0.346863 0 0 255
0.0196982 -0.00223794 0.514312 0 0 255
0.019497 -0.00376661 0.707098 0 0 255
0.0193392 -0.00496494 0.072542 0 0 255
0.0193843 -0.00462216 0.00725228 0 0 255
0.0193162 -0.00513995 0.587622 0 0 255
0.0195626 -0.0032679 0.392391 0 0 255
0.0194118 -0.00441331 0.362154 0 0 255
0.0195306 -0.0035112 0.377034 0 0 255
0.0194782 -0.00390896 0.740839 0 0 255
0.019549 -0.00337173 0.697143 0 0 255
0.0194314 -0.00426496 0.536849 0 0 255
0.0195227 -0.00357106 0.348725 0 0 255
0.0195907 -0.00305435 0.775071 0 0 255
0.0192967 -0.00528777 0.515046 0 0 255
0.0193146 -0.00515186 0.193854 0 0 255
0.0193858 -0.00461071 0.575622 0 0 255
0.019451 -0.00411565 0.173228 0 0 255
0.0199019 -0.000690937 0.705055 0 0 255
0.0193991 -0.0045099 0.260274 0 0 255
0.0194234 -0.00432516 0.0306311 0 0 255
0.0197685 -0.0017045 0.643682 0 0 255
0.0193503 -0.00488048 0.650736 0 0 255
0.0196962 -0.00225315 0.493582 0 0 255
0.0194538 -0.00409441 0.609826 0 0 255
0.0198059 -0.00141994 0.700922 0 0 255
0.0195212 -0.0035829 0.333747 0 0 255
0.0195789 -0.00314455 0.749588 0 0 255
0.0194926 -0.00379977 0.396872 0 0 255
0.0193034 -0.00523734 0.267094 0 0 255
0.019595 -0.00302198 0.377495 0 0 255
0.0195217 -0.00357846 0.757634 0 0 255
0.0196675 -0.00247171 0.476813 0 0 255
0.0194604 -0.00404412 0.151026 0 0 255
0.0195424 -0.00342196 0.32885 0 0 255
0.0193205 -0.00510699 0.446673 0 0 255
0.0199217 -0.000540498 0.744737 0 0 255
0.0196005 -0.00298051 0.682682 0 0 255
0.0196274 -0.00277577 0.42175 0 0 255
0.0186038 0.00680959 0.570727 0 0 255
0.0179386 0.00833941 0.747717 0 0 255
0.0185828 0.00679535 0.721618 0 0 255
0.0178428 0.00863801 0.590837 0 0 255
0.0185825 0.00691386 0.447794 0 0 255
0.017803 0.00882573 0.378132 0 0 255
0.0176319 0.00915718 0.568037 0 0 255
0.0183755 0.00735103 0.593203 0 0 255
0.0179384 0.00858866 0.169333 0 0 255
0.0191632 0.00537451 0.767056 0 0 255
0.0179387 0.0085872 0.170817 0 0 255
0.0184851 0.00708238 0.602705 0 0 255
0.0187434 0.00653049 0.435887 0 0 255
0.0181336 0.00811962 0.163992 0 0 255
0.0180662 0.00825643 0.224171 0 0 255
0.0174975 0.00945984 0.618498 0 0 255
0.0176867 0.00899396 0.639717 0 0 255
0.018072 0.00815901 0.418432 0 0 255
0.0178109 0.00864712 0.749017 0 0 255
0.018831 0.0063259 0.419897 0 0 255
0.018581 0.00691886 0.444323 0 0 255
0.0180411 0.0083058 0.25048 0 0 255
0.0188673 0.00608574 0.774456 0 0 255
0.0181596 0.00807194 0.129135 0 0 255
0.0179743 0.00851629 0.135786 0 0 255
0.0176188 0.00918401 0.578928 0 0 255
0.017882 0.00869803 0.231427 0 0 255
0.0187531 0.0064415 0.588153 0 0 255
0.017567 0.00930748 0.582607 0 0 255
0.0185985 0.00676121 0.71282 0 0 255
0.018396 0.00743749 0.277337 0 0 255
0.0181549 0.00803113 0.250131 0 0 255
0.0181829 0.00774443 0.759477 0 0 255
0.0187095 0.00666595 0.311536 0 0 255
0.0181495 0.00794742 0.475284 0 0 255
0.0186615 0.00673381 0.422825 0 0 255
0.0183586 0.00740605 0.560404 0 0 255
0.019722 0.00196113 0.123679 0 0 255
0.0196501 0.00326271 -0.101267 0 0 255
0.0196245 0.00289012 0.178743 0 0 255
0.0196141 0.00362188 -0.0875023 0 0 255
0.0198187 0.00148937 -0.124835 0 0 255
0.0196436 0.00305862 0.0172747 0 0 255
0.0197751 0.00169104 -0.00794527 0 0 255
0.0195878 0.00365554 0.0205557 0 0 255
0.0196432 0.00257327 0.228152 0 0 255
0.0195672 0.0036356 0.125578 0 0 255
0.0198575 0.00105522 -0.119232 0 0 255
0.0195837 0.00292565 0.354241 0 0 255
0.0195594 0.0031205 0.383688 0 0 255
0.0194611 0.00398716 0.469686 0 0 255
0.0198079 0.00132239 -0.00252781 0 0 255
0.0197356 0.00222341 -0.0526958 0 0 255
0.0195101 0.00382953 0.30837 0 0 255
0.0197316 0.00237508 -0.0994595 0 0 255
0.019699 0.00283391 -0.144801 0 0 255
0.0194944 0.003592 0.483929 0 0 255
0.0195483 0.00329351 0.361141 0 0 255
0.0197076 0.00216644 0.102325 0 0 255
0.019726 0.00208128 0.053295 0 0 255
0.0194399 0.00435522 0.410096 0 0 255
0.0199306 0.000313546 -0.141273 0 0 255
0.0193031 0.00500567 0.768715 0 0 255
0.0188342 0.00612558 -0.0278127 0 0 255
0.0183498 0.00759956 -0.144917 0 0 255
0.0192571 0.00500796 0.446264 0 0 255
0.0190414 0.00559537 0.242587 0 0 255
0.0193248 0.00467502 0.183515 0 0 255
0.018886 0.00612877 0.338262 0 0 255
0.0194459 0.00425113 0.0912608 0 0 255
0.0187503 0.00652876 0.276461 0 0 255
0.0186975 0.00656742 -0.00380791 0 0 255
0.0190192 0.00548265 -0.158728 0 0 255
0.0191956 0.0049347 -0.141175 0 0 255
0.0186679 0.00665355 -0.020017 0 0 255
0.0190922 0.00538619 0.13505 0 0 255
0.018613 0.00687011 0.0755542 0 0 255
0.0186096 0.00683375 -0.0277655 0 0 255
0.018812 0.00628736 0.173545 0 0 255
0.0191084 0.00551992 0.540759 0 0 255
0.0193991 0.00433141 -0.0564299 0 0 255
0.0193818 0.0046074 0.429918 0 0 255
0.0192429 0.00491772 0.149756 0 0 255
0.0184514 0.00732701 -0.0399641 0 0 255
0.0193161 0.00481882 0.439188 0 0 255
0.0193475 0.00449321 -0.0587819 0 0 255
0.0187767 0.00648158 0.355947 0 0 255
0.019377 0.00445606 0.0643712 0 0 255
0.019512 0.00396471 -0.0800265 0 0 255
0.0188227 0.00612896 -0.100232 0 0 255
0.0190672 0.00560382 0.440054 0 0 255
0.0194371 0.00422315 -0.0315662 0 0 255
0.018609 0.0068518 0.00758139 0 0 255
0.0189419 0.00577938 -0.0423699 0 0 255
0.0193011 0.00485209 0.408837 0 0 255
0.0193156 0.00491211 0.641096 0 0 255
0.0190843 0.00545236 0.225643 0 0 255
0.0185356 0.00714558 0.144945 0 0 255
0.0189399 0.00595032 0.319146 0 0 255
-0.0180573 -0.00840841 0.253563 0 0 255
-0.017534 -0.00967189 -0.157354 0 0 255
-0.0183467 -0.00770972 -0.0662637 0 0 255
-0.0180424 -0.00844431 0.0538476 0 0 255
-0.0178808 -0.00883454 -0.024109 0 0 255
-0.0181619 -0.00815581 0.258145 0 0 255
-0.0183274 -0.00775638 0.219152 0 0 255
-0.0174867 -0.00978599 0.204361 0 0 255
-0.0184154 -0.00754398 0.182452 0 0 255
-0.0178743 -0.00885027 0.472155 0 0 255
-0.0186933 -0.00687299 0.144635 0 0 255
-0.0177909 -0.00905162 0.46776 0 0 255
-0.0184908 -0.00736184 0.0844688 0 0 255
-0.0178185 -0.00898496 0.193238 0 0 255
-0.0179619 -0.00863881 0.481255 0 0 255
-0.018544 -0.00723335 -0.15425 0 0 255
-0.0175557 -0.00961932 -0.0140017 0 0 255
-0.0180813 -0.0083504 0.320141 0 0 255
-0.018064 -0.00839231 0.175567 0 0 255
-0.0174733 -0.00981841 0.332555 0 0 255
-0.0187886 -0.00664291 0.0242027 0 0 255
-0.0187555 -0.00672284 -0.0756122 0 0 255
-0.017365 -0.0100798 -0.000294404 0 0 255
-0.0190382 -0.00604028 -0.127652 0 0 255
-0.0175371 -0.00966436 0.0638528 0 0 255
-0.0175425 -0.00965121 -0.0410746 0 0 255
-0.0178552 -0.00889638 0.126787 0 0 255
-0.0173843 -0.0100331 0.240004 0 0 255
-0.0179895 -0.00857217 0.432431 0 0 255
-0.017773 -0.00909473 0.148323 0 0 255
-0.0176129 -0.00948124 0.252766 0 0 255
-0.0185153 -0.00730262 0.174527 0 0 255
-0.0190611 -0.00598492 -0.118723 0 0 255
-0.0186541 -0.00696765 0.106264 0 0 255
-0.0176179 -0.00946922 0.245387 0 0 255
-0.017501 -0.00975152 -0.0476697 0 0 255
-0.018557 -0.00720192 -0.14546 0 0 255
-0.0155201 -0.00792936 -0.161965 0 0 255
-0.0120224 -0.000118936 -0.190529 0 0 255
-0.0119716 0.000169075 -0.211003 0 0 255
-0.0116722 0.00186676 -0.182545 0 0 255
-0.0114359 0.00320696 -0.224622 0 0 255
-0.0113698 0.00358203 -0.221453 0 0 255
-0.0117101 -0.00191013 -0.190857 0 0 255
-0.0116094 -0.00248073 -0.17999 0 0 255
-0.0114647 -0.00330147 -0.170037 0 0 255
-0.0111077 -0.00456709 -0.169742 0 0 255
-0.0112623 -0.00429923 -0.237235 0 0 255
-0.0113285 -0.00407405 -0.200231 0 0 255
-0.0115659 -0.00272741 -0.235822 0 0 255
-0.0116097 -0.00247935 -0.232013 0 0 255
-0.0156497 0.0121809 0.0938331 0 0 255
-0.016501 0.0109668 -0.00611541 0 0 255
-0.0167798 0.0105978 0.199828 0 0 255
-0.0162212 0.0113547 -0.0660722 0 0 255
-0.0175122 0.00954624 0.0557977 0 0 255
-0.0172572 0.00990489 0.043552 0 0 255
-0.016821 0.0105451 0.245849 0 0 255
-0.0169803 0.0103244 0.28098 0 0 255
-0.0167452 0.0106211 -0.013 0 0 255
-0.0158186 0.0119251 -0.0498121 0 0 255
-0.0170595 0.0101755 -0.0286219 0 0 255
-0.0168577 0.0105135 0.41469 0 0 255
-0.0170921 0.0102109 0.652242 0 0 255
-0.0174817 0.00961602 0.278611 0 0 255
-0.0167728 0.0105871 0.0289414 0 0 255
-0.0158509 0.011893 0.0628787 0 0 255
-0.0170009 0.0102586 -0.0253075 0 0 255
-0.0172764 0.0098557 -0.140776 0 0 255
-0.0162693 0.011329 0.287474 0 0 255
-0.0166113 0.0108235 0.097708 0 0 255
-0.0166337 0.0108053 0.210303 0 0 255
-0.0171788 0.010021 0.0883358 0 0 255
-0.0170794 0.0101407 -0.084123 0 0 255
-0.0171597 0.0100358 -0.0133606 0 0 255
-0.0167606 0.010595 -0.0491637 0 0 255
-0.0164694 0.0110293 0.14333 0 0 255
-0.0173566 0.00977716 0.149184 0 0 255
-0.0171187 0.0101617 0.555027 0 0 255
-0.0174857 0.00961655 0.330574 0 0 255
-0.0170874 0.0101666 0.226066 0 0 255
-0.0172123 0.00999193 0.240994 0 0 255
-0.0174194 0.00973019 0.496665 0 0 255
-0.0168271 0.0105672 0.50281 0 0 255
-0.0159991 0.0117024 0.218762 0 0 255
-0.0170638 0.010237 0.535654 0 0 255
-0.0140682 0.0128122 -0.161965 0 0 255
-0.0111695 0.00420211 -0.171904 0 0 255
-0.0104502 0.00544797 -0.212627 0 0 255
-0.00990721 0.00638841 -0.17179 0 0 255
-0.00978177 0.00660568 -0.220079 0 0 255
-0.00945499 0.00717167 -0.204947 0 0 255
-0.00866578 0.00804673 -0.185938 0 0 255
-0.00802611 0.00858347 -0.196564 0 0 255
-0.00807342 0.00854378 -0.204127 0 0 255
-0.00757691 0.0089604 -0.171933 0 0 255
-0.00619653 0.0101187 -0.215962 0 0 255
-0.0155671 0.0121918 0.766693 0 0 255
-0.0166858 0.0107383 0.740291 0 0 255
-0.016802 0.0105925 0.707075 0 0 255
-0.0156406 0.0121904 0.213422 0 0 255
-0.014548 0.0135204 0.763798 0 0 255
-0.0151245 0.0128152 0.493211 0 0 255
-0.0152987 0.0126063 0.387162 0 0 255
-0.0167538 0.0106707 0.617668 0 0 255
-0.0146469 0.0134589 0.36857 0 0 255
-0.0151883 0.0127191 0.569269 0 0 255
-0.0146863 0.0133851 0.500272 0 0 255
-0.0155419 0.0122775 0.457214 0 0 255
-0.0144898 0.0136067 0.702861 0 0 255
-0.0143273 0.013833 0.617155 0 0 255
-0.0154968 0.0122958 0.69385 0 0 255
-0.0151673 0.0127247 0.697249 0 0 255
-0.0160472 0.0115965 0.587787 0 0 255
-0.0154966 0.0123486 0.386137 0 0 255
-0.0147853 0.0133375 0.022871 0 0 255
-0.0141938 0.013982 0.763694 0 0 255
-0.0151974 0.0127378 0.390674 0 0 255
-0.0163714 0.0111911 0.487646 0 0 255
-0.0168411 0.0105548 0.629922 0 0 255
-0.0148003 0.0132257 0.564377 0 0 255
-0.0152974 0.0125776 0.565258 0 0 255
-0.0169144 0.0104574 0.640647 0 0 255
-0.0154354 0.0124197 0.437025 0 0 255
-0.0149209 0.0130582 0.624615 0 0 255
-0.0152533 0.0126705 0.357189 0 0 255
-0.0152427 0.0126505 0.555412 0 0 255
-0.0153873 0.0124386 0.693356 0 0 255
-0.0151306 0.0128409 0.296707 0 0 255
-0.0149033 0.0132056 -0.105572 0 0 255
-0.0169895 0.0103384 0.764482 0 0 255
-0.0145045 0.0135829 0.729049 0 0 255
-0.0166297 0.0108315 0.623085 0 0 255
-0.0151009 0.0128732 0.333354 0 0 255
-0.0150642 0.0129158 0.364511 0 0 255
0.0135725 0.0129183 0.791332 0 0 255
-0.0100747 0.0109957 0.791332 0 0 255
0.0148769 0.013128 0.428595 0 0 255
0.0160214 0.0116397 0.417502 0 0 255
0.0146699 0.0133496 0.596878 0 0 255
0.0158084 0.0118373 0.696645 0 0 255
0.015076 0.0128972 0.328564 0 0 255
0.0148001 0.0132298 0.422494 0 0 255
0.0156544 0.0121857 0.180898 0 0 255
0.014481 0.0135708 0.684458 0 0 255
0.0164056 0.0111462 0.392228 0 0 255
0.0158625 0.0117841 0.636347 0 0 255
0.0155699 0.0123861 -0.134552 0 0 255
0.0166603 0.010702 0.784361 0 0 255
0.0171034 0.0101492 0.698008 0 0 255
0.0159895 0.0116289 0.60003 0 0 255
0.0167225 0.0106262 0.766007 0 0 255
0.016056 0.0116552 0.205824 0 0 255
0.0151424 0.0128479 0.198346 0 0 255
0.0149456 0.0130663 0.331205 0 0 255
0.0163058 0.0112206 0.586528 0 0 255
0.0164374 0.0110606 0.546647 0 0 255
0.0152975 0.0125938 0.380113 0 0 255
0.0147768 0.0132748 0.371741 0 0 255
0.0169411 0.0103415 0.765576 0 0 255
0.0163688 0.0112217 0.295908 0 0 255
0.0153387 0.0125802 0.239909 0 0 255
0.0162173 0.0114019 0.356073 0 0 255
0.0165092 0.010974 0.522231 0 0 255
0.0155741 0.0121249 0.758924 0 0 255
0.0153362 0.0125831 0.241144 0 0 255
0.0145303 0.0135028 0.696974 0 0 255
0.0152015 0.0126468 0.631918 0 0 255
0.0164295 0.0110938 0.466162 0 0 255
0.0160398 0.0116616 0.25698 0 0 255
0.0153012 0.0126526 0.157711 0 0 255
0.0159848 0.0116069 0.698804 0 0 255
0.0168114 0.0105042 0.787514 0 0 255
0.0148883 0.0130655 0.595002 0 0 255
0.0168603 0.0103322 -0.0669509 0 0 255
0.0163404 0.0111932 0.00243586 0 0 255
0.0175244 0.0093749 0.344604 0 0 255
0.0177248 0.00891408 -0.135155 0 0 255
0.0165974 0.0107785 0.00657602 0 0 255
0.0163399 0.0111892 -0.0146415 0 0 255
0.0176466 0.00913744 0.204823 0 0 255
0.0170002 0.0102193 0.331183 0 0 255
0.0167374 0.0105966 0.163097 0 0 255
0.0178248 0.00882623 0.124318 0 0 255
0.0176929 0.00898246 -0.0764065 0 0 255
0.0175621 0.00923649 0.0727356 0 0 255
0.0173123 0.00972586 0.371523 0 0 255
0.0173813 0.00961598 0.377688 0 0 255
0.0174394 0.00943523 0.0735421 0 0 255
0.0177677 0.00885671 -0.0931437 0 0 255
0.0179673 0.00855371 -0.0230943 0 0 255
0.0161143 0.0115274 -0.108435 0 0 255
0.0166765 0.010694 0.159029 0 0 255
0.0171842 0.00996709 0.491327 0 0 255
0.0176331 0.00918982 0.311908 0 0 255
0.0163023 0.0113129 0.20668 0 0 255
0.0170541 0.0102038 0.583524 0 0 255
0.0172968 0.00985685 0.743791 0 0 255
0.0170411 0.0101161 0.201544 0 0 255
0.0179771 0.00855251 0.0284753 0 0 255
0.0178274 0.00881746 0.10862 0 0 255
0.0164351 0.0110106 -0.10093 0 0 255
0.0164607 0.0110678 0.245666 0 0 255
0.0165293 0.0109176 0.107819 0 0 255
0.0167406 0.0106479 0.361372 0 0 255
0.0177835 0.00881676 -0.143706 0 0 255
0.0172379 0.00976196 0.0760205 0 0 255
0.0170873 0.0100059 0.0768024 0 0 255
0.0159711 0.0117595 -0.107172 0 0 255
-0.0150605 -0.0131057 0.626365 0 0 255
-0.0171756 -0.0103493 0.131445 0 0 255
-0.0168399 -0.0107868 0.369438 0 0 255
-0.0173419 -0.0101325 -0.118359 0 0 255
-0.0172307 -0.0102774 0.107651 0 0 255
-0.0170539 -0.0105078 0.40694 0 0 255
-0.0163747 -0.0113929 0.516699 0 0 255
-0.0170436 -0.0105213 0.787674 0 0 255
-0.0162506 -0.0115547 0.403948 0 0 255
-0.0162745 -0.0115236 0.701522 0 0 255
-0.0169243 -0.0106768 0.398774 0 0 255
-0.0170991 -0.010449 0.284239 0 0 255
-0.0166425 -0.0110439 0.67638 0 0 255
-0.0162447 -0.0115625 0.746662 0 0 255
-0.0173045 -0.0101813 -0.121754 0 0 255
-0.0159358 -0.011965 0.588868 0 0 255
-0.0165754 -0.0111314 0.158322 0 0 255
-0.0172414 -0.0102635 0.11681 0 0 255
-0.0173091 -0.0101753 0.694395 0 0 255
-0.0172729 -0.0102225 0.633301 0 0 255
-0.0166357 -0.0110529 0.238216 0 0 255
-0.0170808 -0.0104728 0.399857 0 0 255
-0.0166044 -0.0110936 0.275938 0 0 255
-0.0162981 -0.0114928 0.525833 0 0 255
-0.0162045 -0.0116147 0.571328 0 0 255
-0.0171533 -0.0103783 0.740827 0 0 255
-0.0162503 -0.0115551 0.733285 0 0 255
-0.0165647 -0.0111454 0.391728 0 0 255
-0.0173261 -0.0101531 0.131053 0 0 255
-0.0170991 -0.0104489 0.44606 0 0 255
-0.016432 -0.0113183 0.39906 0 0 255
-0.0156869 -0.0122894 0.77229 0 0 255
-0.015594 -0.0124104 0.701055 0 0 255
-0.0162608 -0.0115414 0.499773 0 0 255
-0.0162519 -0.0115531 0.479444 0 0 255
-0.0172355 -0.0102712 0.304503 0 0 255
-0.0159884 -0.0118965 0.60714 0 0 255
-0.0172504 -0.0102518 0.170152 0 0 255
-0.00914225 -0.0122486 0.791332 0 0 255
-0.000307373 -0.00824342 0.791332 0 0 255
0.0180568 -0.00829308 0.0364792 0 0 255
0.0186766 -0.00679673 -0.0320052 0 0 255
0.0183861 -0.00749821 0.109959 0 0 255
0.018054 -0.00830004 0.0891137 0 0 255
0.0181214 -0.00813717 -0.0337164 0 0 255
0.0180837 -0.00822814 0.195456 0 0 255
0.0191358 -0.00568814 0.245125 0 0 255
0.0192467 -0.0054204 0.491405 0 0 255
0.0192098 -0.00550956 0.680029 0 0 255
0.0189855 -0.006051 0.459406 0 0 255
0.0184031 -0.00745704 0.358703 0 0 255
0.0185657 -0.00706447 -0.0871287 0 0 255
0.018822 -0.00644573 0.182186 0 0 255
0.0187663 -0.00658017 0.143954 0 0 255
0.0185976 -0.00698744 0.0531028 0 0 255
0.0174355 -0.00979301 -0.123439 0 0 255
0.0183159 -0.00766762 0.283639 0 0 255
0.0183741 -0.00752718 0.0429894 0 0 255
0.0189528 -0.00612994 0.54607 0 0 255
0.0179887 -0.00845764 -0.0956613 0 0 255
0.0191473 -0.00566051 0.0175085 0 0 255
0.0189739 -0.00607909 0.142768 0 0 255
0.0188834 -0.00629749 -0.0993855 0 0 255
0.0180305 -0.00835675 0.123638 0 0 255
0.0178354 -0.00882762 -0.0395193 0 0 255
0.0182165 -0.0079076 -0.00599477 0 0 255
0.0175965 -0.00940432 -0.0632513 0 0 255
0.0182855 -0.00774103 -0.117822 0 0 255
0.0184531 -0.00733641 0.0462315 0 0 255
0.0181692 -0.00802192 0.228556 0 0 255
0.0186589 -0.00683967 0.0608003 0 0 255
0.0186739 -0.0068033 0.181652 0 0 255
0.0191877 -0.00556303 0.654501 0 0 255
0.0177789 -0.00896418 -0.0700183 0 0 255
0.018236 -0.00786045 0.198414 0 0 255
0.0188531 -0.00637071 -0.0261241 0 0 255
0.0181485 -0.00807167 0.0230677 0 0 255
0.0192729 -0.00535721 0.784246 0 0 255
0.0177096 -0.0091313 0.361754 0 0 255
0.017475 -0.0096977 0.438612 0 0 255
0.0177725 -0.00897959 0.725332 0 0 255
0.0183752 -0.00752447 0.605472 0 0 255
0.0173446 -0.0100126 0.111085 0 0 255
0.0175627 -0.00948611 0.137784 0 0 255
0.0174038 -0.00986963 0.184444 0 0 255
0.0173299 -0.010048 0.140787 0 0 255
0.0181395 -0.00809361 0.639186 0 0 255
0.0176265 -0.00933193 0.362556 0 0 255
0.0183456 -0.00759588 0.461033 0 0 255
0.0182072 -0.00793 0.733477 0 0 255
0.0174934 -0.00965324 0.664562 0 0 255
0.0177406 -0.00905646 0.34986 0 0 255
0.0174011 -0.00987614 0.209407 0 0 255
0.0176882 -0.00918305 0.170393 0 0 255
0.0173929 -0.00989588 0.689012 0 0 255
0.0174478 -0.00976339 0.47247 0 0 255
0.0178762 -0.00872916 0.516881 0 0 255
0.0174296 -0.00980741 0.278998 0 0 255
0.018074 -0.0082517 0.61246 0 0 255
0.0174355 -0.00979319 0.602384 0 0 255
0.0181873 -0.00797817 0.363423 0 0 255
0.0178804 -0.00871893 0.300161 0 0 255
0.0180649 -0.00827362 0.583169 0 0 255
0.0176767 -0.00921074 0.358613 0 0 255
0.0180351 -0.00834548 0.5785 0 0 255
0.0174553 -0.00974525 0.367613 0 0 255
0.0173748 -0.00993978 0.662365 0 0 255
0.0179148 -0.00863599 0.460486 0 0 255
0.0180122 -0.00840073 0.773146 0 0 255
0.0176259 -0.00933348 0.663883 0 0 255
0.0173123 -0.0100906 -0.032718 0 0 255
0.0178172 -0.00887163 0.581835 0 0 255
0.0176726 -0.00922072 0.750057 0 0 255
0.0175279 -0.00957002 0.163067 0 0 255
0.0174733 -0.00970189 0.328205 0 0 255
0.014259 0.00339645 -0.161965 0 0 255
0.0108139 0.0110884 -0.161965 0 0 255
-0.0144367 -0.0139187 0.581669 0 0 255
-0.0151913 -0.0129352 -0.070881 0 0 255
-0.015975 -0.0119139 0.195002 0 0 255
-0.0148116 -0.01343 -0.136391 0 0 255
-0.0143997 -0.0139669 0.656962 0 0 255
-0.0145221 -0.0138073 0.194758 0 0 255
-0.0170399 -0.0105261 -0.118633 0 0 255
-0.0150329 -0.0131416 0.22805 0 0 255
-0.0145661 -0.01375 0.0459941 0 0 255
-0.0142503 -0.0141616 -0.0781996 0 0 255
-0.0143231 -0.0140667 0.418572 0 0 255
-0.015055 -0.0131129 0.00153799 0 0 255
-0.0152555 -0.0128516 0.113146 0 0 255
-0.0152026 -0.0129205 0.139365 0 0 255
-0.0148055 -0.013438 0.0382325 0 0 255
-0.0153195 -0.0127681 -0.00841504 0 0 255
-0.0155685 -0.0124437 0.0852802 0 0 255
-0.0144509 -0.0139002 0.34396 0 0 255
-0.0155506 -0.012467 0.17324 0 0 255
-0.0153397 -0.0127419 0.120116 0 0 255
-0.0143562 -0.0140235 0.571804 0 0 255
-0.0142381 -0.0141775 0.126199 0 0 255
-0.0152969 -0.0127976 0.241052 0 0 255
-0.0150353 -0.0131385 -0.0884005 0 0 255
-0.0144539 -0.0138962 0.308581 0 0 255
-0.0143282 -0.0140601 -0.065914 0 0 255
-0.0151753 -0.0129561 0.201299 0 0 255
-0.01498 -0.0132106 0.410657 0 0 255
-0.0141797 -0.0142536 0.230515 0 0 255
-0.0145407 -0.0137832 0.605815 0 0 255
-0.0154787 -0.0125607 -0.0658105 0 0 255
-0.0141807 -0.0142523 0.330869 0 0 255
-0.0158291 -0.0121041 -0.129036 0 0 255
-0.014798 -0.0134478 0.171685 0 0 255
-0.014405 -0.0139599 0.608511 0 0 255
-0.0141935 -0.0142356 0.476258 0 0 255
-0.0167672 -0.0108815 -0.158966 0 0 255
-0.0147039 -0.0135704 0.442865 0 0 255
-0.015306 -0.0127133 -0.161965 0 0 255
-0.00734216 -0.00941529 -0.177654 0 0 255
-0.0089173 -0.0080936 -0.191158 0 0 255
-0.0092486 -0.00778707 -0.176915 0 0 255
-0.00960064 -0.00717733 -0.245081 0 0 255
-0.0105511 -0.00553116 -0.241622 0 0 255
-0.0102081 0.000522761 -0.246551 0 0 255
-0.00727599 -0.00553706 -0.246551 0 0 255
-0.0131975 0.0147671 0.196866 0 0 255
-0.0132405 0.0147433 0.298537 0 0 255
-0.012841 0.015076 0.225415 0 0 255
-0.0131078 0.0148378 0.147953 0 0 255
-0.0137814 0.0142987 0.444984 0 0 255
-0.0142179 0.013896 0.216969 0 0 255
-0.0120722 0.0157219 0.127237 0 0 255
-0.0127853 0.0151385 0.341201 0 0 255
-0.0138541 0.0141886 0.0683802 0 0 255
-0.0121224 0.0156538 -0.0705552 0 0 255
-0.0129591 0.0149921 0.359964 0 0 255
-0.0133603 0.0146133 0.0832336 0 0 255
-0.0134932 0.0145012 0.0963869 0 0 255
-0.0137464 0.0143192 0.370006 0 0 255
-0.0137515 0.0142767 0.069799 0 0 255
-0.0140075 0.0141095 0.479736 0 0 255
-0.0139903 0.0141499 0.681385 0 0 255
-0.0120759 0.0157001 -0.0193277 0 0 255
-0.0122269 0.0155925 0.151088 0 0 255
-0.0117386 0.0159944 0.0236138 0 0 255
-0.0121646 0.0156116 -0.118062 0 0 255
-0.0136665 0.0143843 0.343968 0 0 255
-0.0134029 0.0146198 0.42136 0 0 255
-0.0130849 0.0148274 -0.0881624 0 0 255
-0.0130711 0.0148767 0.206652 0 0 255
-0.0122705 0.015525 -0.0856627 0 0 255
-0.0135758 0.0144377 0.152994 0 0 255
-0.0137404 0.014277 -0.00207827 0 0 255
-0.0137936 0.0142476 0.124981 0 0 255
-0.0140372 0.0140916 0.539011 0 0 255
-0.0137589 0.0143028 0.325369 0 0 255
-0.0143214 0.0138254 0.358802 0 0 255
-0.0146631 0.0134757 -0.090389 0 0 255
-0.0120838 0.0156768 -0.149695 0 0 255
-0.0119951 0.0157644 -0.0578937 0 0 255
-0.00482945 0.013047 -0.161965 0 0 255
-0.00506949 0.0106108 -0.202353 0 0 255
-0.00329426 0.0112569 -0.225726 0 0 255
-0.00565025 0.0103994 -0.210352 0 0 255
-0.00459146 0.0107848 -0.177917 0 0 255
-0.0021783 0.0116631 -0.198942 0 0 255
-0.0029779 0.0113721 -0.208457 0 0 255
-0.0128684 0.0150733 0.395244 0 0 255
-0.0108412 0.0165658 0.784138 0 0 255
-0.0110048 0.0165645 0.0179046 0 0 255
-0.0118006 0.0158561 0.620422 0 0 255
-0.0129543 0.0149734 0.604907 0 0 255
-0.0108254 0.0165792 0.775949 0 0 255
-0.0112387 0.0163018 0.530708 0 0 255
-0.0111888 0.0163343 0.566493 0 0 255
-0.0116742 0.0159357 0.727964 0 0 255
-0.0114413 0.0161596 0.44906 0 0 255
-0.0116361 0.0159757 0.661541 0 0 255
-0.0107317 0.016698 0.486407 0 0 255
-0.0132422 0.0147417 0.671521 0 0 255
-0.0134642 0.0145618 0.730168 0 0 255
-0.0118536 0.0159002 0.0980075 0 0 255
-0.0111693 0.016438 0.0196958 0 0 255
-0.0103044 0.0169868 0.727441 0 0 255
-0.0116465 0.0159622 0.695364 0 0 255
-0.0123121 0.0155078 0.348515 0 0 255
-0.010222 0.0170551 0.696914 0 0 255
-0.0123235 0.0154958 0.368077 0 0 255
-0.010408 0.0169461 0.488851 0 0 255
-0.0112988 0.0162222 0.737056 0 0 255
-0.013133 0.0148456 0.54721 0 0 255
-0.0121645 0.0155822 0.587969 0 0 255
-0.0117817 0.0158699 0.625226 0 0 255
-0.010896 0.0166339 0.104453 0 0 255
-0.0124283 0.0154007 0.458686 0 0 255
-0.0121489 0.0156163 0.451337 0 0 255
-0.0103921 0.0169366 0.622763 0 0 255
-0.0114681 0.0161548 0.352038 0 0 255
-0.0120649 0.0156513 0.632904 0 0 255
-0.0122294 0.0155434 0.520144 0 0 255
-0.0123488 0.0154433 0.572479 0 0 255
-0.0129215 0.0149885 0.666632 0 0 255
-0.0109324 0.0166247 -0.010499 0 0 255
-0.0116362 0.0159857 0.5992 0 0 255
-0.000802209 0.0145496 0.791332 0 0 255
-0.00658535 0.0159552 0.791332 0 0 255
0.0119844 0.0158473 -0.0817665 0 0 255
0.0120178 0.0157332 0.310632 0 0 255
0.011163 0.0163902 0.305291 0 0 255
0.01119 0.0162861 0.675279 0 0 255
0.01235 0.0154445 0.460388 0 0 255
0.0132932 0.0146479 0.783139 0 0 255
0.0121951 0.015607 0.266632 0 0 255
0.0135183 0.0144751 0.783447 0 0 255
0.0133967 0.0146012 0.638313 0 0 255
0.0131721 0.0147722 0.644305 0 0 255
0.0134506 0.0145861 0.52209 0 0 255
0.0131797 0.0148201 0.405938 0 0 255
0.0124754 0.0154365 0.0689702 0 0 255
0.0104992 0.0168237 0.641905 0 0 255
0.0106991 0.0166506 0.729086 0 0 255
0.0112144 0.0163643 0.24577 0 0 255
0.0119521 0.0158206 0.146289 0 0 255
0.0121983 0.0156097 0.244049 0 0 255
0.0112982 0.0162458 0.486092 0 0 255
0.0120063 0.0157328 0.351338 0 0 255
0.0125122 0.0152755 0.657887 0 0 255
0.0127948 0.0150883 0.526556 0 0 255
0.0130941 0.0148483 0.572083 0 0 255
0.0116981 0.016032 0.073414 0 0 255
0.0110977 0.0164349 0.329394 0 0 255
0.0114361 0.0161609 0.392903 0 0 255
0.0115043 0.0161483 0.217278 0 0 255
0.0110046 0.0164716 0.483529 0 0 255
0.0108814 0.0165766 0.437237 0 0 255
0.0117618 0.0159801 0.0869555 0 0 255
0.0127895 0.0150665 0.641125 0 0 255
0.0138297 0.0142537 0.705803 0 0 255
0.0127397 0.0152101 0.173812 0 0 255
0.0105419 0.0167744 0.715227 0 0 255
0.0136184 0.0144134 0.716386 0 0 255
0.0119104 0.0158666 0.0842991 0 0 255
0.0121455 0.0156771 0.124975 0 0 255
0.0135732 0.0144792 0.503399 0 0 255
0.0130844 0.0148753 0.143721 0 0 255
0.0152796 0.0127032 -0.0410682 0 0 255
0.0153865 0.0125743 -0.155944 0 0 255
0.0154256 0.012549 -0.0976304 0 0 255
0.0133626 0.0146566 0.379151 0 0 255
0.0133647 0.0145983 0.121819 0 0 255
0.0146008 0.0134267 0.253159 0 0 255
0.0123025 0.015576 -0.123928 0 0 255
0.0140359 0.0139324 0.0574692 0 0 255
0.0135809 0.0144552 0.42747 0 0 255
0.0146106 0.0133535 -0.0380306 0 0 255
0.012952 0.0150019 0.134968 0 0 255
0.0145055 0.0135662 0.467669 0 0 255
0.0142681 0.0137868 0.422497 0 0 255
0.0127092 0.0152347 0.121175 0 0 255
0.0139687 0.0140058 0.094547 0 0 255
0.0143258 0.0137118 0.335401 0 0 255
0.0133873 0.0145344 -0.0700344 0 0 255
0.0136099 0.0143273 -0.0287798 0 0 255
0.0129425 0.0149738 -0.0359074 0 0 255
0.0149411 0.0130307 -0.0466352 0 0 255
0.0139838 0.0139663 -0.0191142 0 0 255
0.0132958 0.0146416 0.0139679 0 0 255
0.0141433 0.0138355 0.0912425 0 0 255
0.014715 0.0133206 0.274781 0 0 255
0.0131715 0.0147986 0.179917 0 0 255
0.0128128 0.0150775 -0.137763 0 0 255
0.0131879 0.0147808 0.171105 0 0 255
0.0134831 0.0144299 -0.12235 0 0 255
0.0130765 0.0148803 0.131611 0 0 255
0.0144618 0.0136266 0.550169 0 0 255
0.0131117 0.014816 -0.00605404 0 0 255
0.0129866 0.0149741 0.161316 0 0 255
0.0142057 0.0138157 0.2774 0 0 255
0.00703355 0.0167524 -0.161965 0 0 255
-0.0128846 -0.0152545 0.661535 0 0 255
-0.0131537 -0.015048 0.499572 0 0 255
-0.0113142 -0.0164595 0.64724 0 0 255
-0.0127874 -0.0153292 0.628222 0 0 255
-0.0122921 -0.0157092 0.567478 0 0 255
-0.0128199 -0.0153042 0.718698 0 0 255
-0.0122061 -0.0157752 0.583736 0 0 255
-0.0105787 -0.0170239 0.721941 0 0 255
-0.0138981 -0.0144769 0.750272 0 0 255
-0.0111796 -0.0165628 0.64429 0 0 255
-0.0134479 -0.0148223 0.760464 0 0 255
-0.0128727 -0.0152637 0.588933 0 0 255
-0.013241 -0.0149811 0.375861 0 0 255
-0.0139413 -0.0144437 0.417058 0 0 255
-0.0117459 -0.0161283 0.443501 0 0 255
-0.0138391 -0.0145221 0.213987 0 0 255
-0.013255 -0.0149704 0.501999 0 0 255
-0.0103752 -0.0171801 0.713126 0 0 255
-0.0126206 -0.0154572 0.584602 0 0 255
-0.0124998 -0.0155498 0.646194 0 0 255
-0.0129933 -0.0151711 0.1275 0 0 255
-0.0130467 -0.0151302 0.742571 0 0 255
-0.0130389 -0.0151362 0.34782 0 0 255
-0.0119293 -0.0159876 0.488268 0 0 255
-0.0118971 -0.0160123 0.532878 0 0 255
-0.013931 -0.0144516 0.0192975 0 0 255
-0.0115679 -0.0162649 0.620506 0 0 255
-0.0140829 -0.014335 0.0693098 0 0 255
-0.0118154 -0.016075 0.43367 0 0 255
-0.0135085 -0.0147758 0.275758 0 0 255
-0.0134901 -0.0147899 0.113855 0 0 255
-0.0114713 -0.016339 0.500265 0 0 255
-0.0137177 -0.0146153 0.00462438 0 0 255
-0.0139394 -0.0144452 0.415124 0 0 255
-0.0136585 -0.0146607 0.738123 0 0 255
-0.0134625 -0.0148111 0.119403 0 0 255
-0.0128426 -0.0152868 0.370165 0 0 255
-0.00778504 -0.0164984 0.791332 0 0 255
0.00560586 -0.0124362 0.791332 0 0 255
0.0165461 -0.0111068 0.0365137 0 0 255
0.0153398 -0.0126788 0.124255 0 0 255
0.0168081 -0.0107653 -0.159469 0 0 255
0.0171621 -0.0103039 0.660084 0 0 255
0.0166777 -0.0109352 0.426858 0 0 255
0.0161279 -0.0116518 -0.11968 0 0 255
0.0172054 -0.0102476 -0.0982019 0 0 255
0.0170503 -0.0104497 -0.0228893 0 0 255
0.0156564 -0.0122663 -0.0636323 0 0 255
0.0158316 -0.012038 -0.130493 0 0 255
0.0166051 -0.0110299 -0.0841074 0 0 255
0.0163561 -0.0113543 0.385965 0 0 255
0.0165315 -0.0111258 0.431686 0 0 255
0.0158262 -0.0120449 0.0758001 0 0 255
0.0170378 -0.010466 0.064893 0 0 255
0.0158241 -0.0120477 0.133321 0 0 255
0.0164107 -0.0112832 0.0944986 0 0 255
0.0169388 -0.010595 0.0504164 0 0 255
0.0150768 -0.0130216 -0.0462048 0 0 255
0.0172068 -0.0102458 0.651713 0 0 255
0.0170359 -0.0104684 -0.0198968 0 0 255
0.0161255 -0.0116549 0.0649159 0 0 255
0.0166328 -0.0109938 0.0555062 0 0 255
0.0162327 -0.0115152 0.35742 0 0 255
0.016662 -0.0109557 0.0326535 0 0 255
0.0150269 -0.0130867 -0.0487568 0 0 255
0.0166869 -0.0109232 0.452638 0 0 255
0.0152067 -0.0128524 0.046485 0 0 255
0.0157719 -0.0121158 0.0186989 0 0 255
0.0165221 -0.0111381 0.525154 0 0 255
0.0154213 -0.0125726 0.216286 0 0 255
0.0172102 -0.0102412 0.0129194 0 0 255
0.0170206 -0.0104884 0.0582379 0 0 255
0.0151725 -0.0128969 -0.000423158 0 0 255
0.0164019 -0.0112946 0.162413 0 0 255
0.016948 -0.0105829 0.262233 0 0 255
0.0156772 -0.0122392 -0.108684 0 0 255
0.015442 -0.0125456 0.318307 0 0 255
0.0150579 -0.0130462 0.352351 0 0 255
0.0146123 -0.0136269 0.195744 0 0 255
0.0161865 -0.0115754 0.772564 0 0 255
0.0162068 -0.0115489 0.663615 0 0 255
0.0141712 -0.0142019 0.125357 0 0 255
0.015156 -0.0129184 0.703109 0 0 255
0.0143532 -0.0139646 -0.0877657 0 0 255
0.0150159 -0.0131009 0.43151 0 0 255
0.0144414 -0.0138496 0.437571 0 0 255
0.0143453 -0.0139749 0.147602 0 0 255
0.0152937 -0.0127389 0.728218 0 0 255
0.0161621 -0.0116072 0.519479 0 0 255
0.0163157 -0.011407 0.64803 0 0 255
0.0143008 -0.014033 -0.0928712 0 0 255
0.0147265 -0.0134781 0.225298 0 0 255
0.0164383 -0.0112472 0.696307 0 0 255
0.0147771 -0.0134121 0.0704938 0 0 255
0.0146484 -0.0135799 0.102863 0 0 255
0.0145125 -0.013757 0.675838 0 0 255
0.0161538 -0.011618 0.732069 0 0 255
0.0160385 -0.0117683 0.68582 0 0 255
0.0151624 -0.01291 0.496828 0 0 255
0.015336 -0.0126838 0.691814 0 0 255
0.014304 -0.0140287 0.111349 0 0 255
0.0158611 -0.0119994 0.505617 0 0 255
0.0142774 -0.0140633 0.348729 0 0 255
0.0155991 -0.012341 0.323474 0 0 255
0.0160856 -0.0117068 0.506259 0 0 255
0.0168564 -0.0107023 0.669633 0 0 255
0.0162392 -0.0115068 0.716702 0 0 255
0.0156385 -0.0122896 0.516072 0 0 255
0.0165971 -0.0110403 0.587868 0 0 255
0.0149104 -0.0132384 0.594602 0 0 255
0.0159095 -0.0119363 0.499462 0 0 255
0.0146983 -0.0135149 0.142837 0 0 255
0.0143787 -0.0139314 0.268043 0 0 255
0.01593 -0.0119096 0.588583 0 0 255
0.0105026 -0.0133832 -0.161965 0 0 255
0.0115243 0.00243217 -0.18172 0 0 255
0.0119727 -0.00011064 -0.177139 0 0 255
0.0119655 -0.000187995 -0.216725 0 0 255
0.0116359 -0.00205698 -0.240544 0 0 255
0.0116831 -0.00178912 -0.199891 0 0 255
0.0114337 -0.00320359 -0.20778 0 0 255
0.0115226 -0.00269951 -0.17591 0 0 255
0.0113235 -0.00382883 -0.224704 0 0 255
0.0104151 0.00542525 -0.209008 0 0 255
0.0111974 0.00407017 -0.218011 0 0 255
0.0116834 0.0015297 -0.224726 0 0 255
0.0113962 0.00315841 -0.189979 0 0 255
0.0112628 0.00391533 -0.229171 0 0 255
0.0110343 -0.00461064 -0.220499 0 0 255
0.0105269 -0.00548937 -0.201082 0 0 255
0.0107397 -0.00512079 -0.184632 0 0 255
0.0091729 -0.00783463 -0.24537 0 0 255
0.00944341 -0.00736611 -0.21099 0 0 255
0.00753883 0.00895187 -0.188687 0 0 255
0.0091152 0.00762914 -0.195725 0 0 255
0.00916098 0.00759073 -0.172239 0 0 255
0.0102897 0.00564236 -0.244916 0 0 255
0.0104156 0.00542429 -0.244605 0 0 255
0.00974789 0.00658081 -0.236054 0 0 255
0.00570897 0.0103605 -0.182587 0 0 255
0.00573899 0.0103496 -0.23017 0 0 255
0.00669614 0.00965897 -0.245089 0 0 255
0.00767536 0.00883731 -0.219429 0 0 255
0.00661379 0.00972807 -0.205167 0 0 255
0.000468395 0.0116887 -0.162604 0 0 255
0.00173194 0.0116887 -0.237064 0 0 255
0.00192621 0.0116887 -0.223072 0 0 255
0.00220044 0.0116375 -0.196615 0 0 255
0.0029001 0.0113828 -0.235571 0 0 255
0.00251364 0.0115235 -0.2377 0 0 255
-0.0117551 -0.0161212 0.373107 0 0 255
-0.0107715 -0.016876 -0.0843844 0 0 255
-0.0118517 -0.0160471 0.237077 0 0 255
-0.0110117 -0.0166917 0.123068 0 0 255
-0.0125778 -0.01549 0.164003 0 0 255
-0.011385 -0.0164053 -0.101912 0 0 255
-0.0127127 -0.0153864 0.132836 0 0 255
-0.0120457 -0.0158983 0.159141 0 0 255
-0.0109133 -0.0167672 0.0258122 0 0 255
-0.0133421 -0.0149035 -0.0774265 0 0 255
-0.010143 -0.0173583 0.743134 0 0 255
-0.0119139 -0.0159994 -0.133334 0 0 255
-0.0115402 -0.0162862 0.255481 0 0 255
-0.0128796 -0.0152584 -0.13247 0 0 255
-0.0125948 -0.0154769 0.089525 0 0 255
-0.011649 -0.0162026 0.385379 0 0 255
-0.0104533 -0.0171202 0.0870919 0 0 255
-0.0103477 -0.0172012 0.128253 0 0 255
-0.0107215 -0.0169143 0.369566 0 0 255
-0.0105935 -0.0170126 0.555198 0 0 255
-0.0119667 -0.0159589 0.205026 0 0 255
-0.0107201 -0.0169155 0.039418 0 0 255
-0.0122437 -0.0157463 0.0221189 0 0 255
-0.010892 -0.0167835 0.526648 0 0 255
-0.0117578 -0.0161192 0.318906 0 0 255
-0.0130125 -0.0151564 0.00532416 0 0 255
-0.0105364 -0.0170564 0.500681 0 0 255
-0.0130095 -0.0151587 -0.152433 0 0 255
-0.01245 -0.015588 -0.147507 0 0 255
-0.0110564 -0.0166574 0.145469 0 0 255
-0.0123557 -0.0156604 -0.1397 0 0 255
-0.0126237 -0.0154547 0.12018 0 0 255
-0.0108457 -0.0168191 0.38848 0 0 255
-0.0115127 -0.0163072 0.00180849 0 0 255
-0.0110359 -0.0166731 -0.140723 0 0 255
-0.0128738 -0.0152628 -0.0964103 0 0 255
-0.0114783 -0.0163336 -0.103464 0 0 255
0.000996166 -0.0157154 -0.161965 0 0 255
-0.00385416 -0.0113111 -0.196798 0 0 255
-0.00279764 -0.0116956 -0.173556 0 0 255
-0.00424321 -0.0111695 -0.193837 0 0 255
-0.00659513 -0.0100421 -0.20019 0 0 255
-0.00772107 -0.00909735 -0.221514 0 0 255
-0.00726344 -0.00948135 -0.198284 0 0 255
-0.00012969 -0.0119467 -0.176802 0 0 255
-0.00147153 -0.0119467 -0.168493 0 0 255
-0.00503405 -0.0108816 -0.241054 0 0 255
-0.00367693 -0.0113756 -0.239939 0 0 255
-0.00581942 -0.0105958 -0.242564 0 0 255
-0.00381154 0.000525309 -0.332717 0 0 255
-0.00389997 0.000253136 -0.388976 0 0 255
-0.00398833 -1.88024e-05 -0.292542 0 0 255
-0.00394224 0.000123054 -0.406609 0 0 255
-0.00359282 0.00134903 -0.296764 0 0 255
-0.00344279 0.00189422 -0.302382 0 0 255
-0.00378323 0.000635928 -0.297712 0 0 255
-0.00368534 -0.00117163 -0.288864 0 0 255
-0.00377569 -0.00089354 -0.374366 0 0 255
-0.00335816 -0.00217857 -0.25118 0 0 255
-0.002501 0.00286036 -0.249801 0 0 255
-0.00309241 0.00229518 -0.29042 0 0 255
-0.00312519 0.00232758 -0.391374 0 0 255
-0.0023785 0.00301528 -0.301902 0 0 255
-0.00200804 0.00334126 -0.251492 0 0 255
-0.00158939 0.00345015 -0.424741 0 0 255
-0.00200168 0.00331 -0.283323 0 0 255
-0.00151483 0.00350664 -0.29588 0 0 255
-0.00154415 0.00348721 -0.279585 0 0 255
-0.00114037 0.0036312 -0.32997 0 0 255
-0.0010864 0.0111921 -0.246551 0 0 255
-0.000765035 0.00370867 -0.404688 0 0 255
-0.000822418 0.0036863 -0.426468 0 0 255
3.67698e-05 0.00369848 -0.414608 0 0 255
