ply
format ascii 1.0
comment Created by CloudCompare v2.11.1 (Anoia)
comment Created 22. 1. 26. 오후 10:13
obj_info Generated by CloudCompare!
element vertex 690
property float x
property float y
property float z
property uchar red
property uchar green
property uchar blue
property float nx
property float ny
property float nz
end_header
-0.0150276 0.013031 -0.141566 0 0 255 0.726264 -0.687381 0.00694325 
-0.01699 0.0103308 0.448922 0 0 255 0.8759 -0.482476 -0.00398741 
-0.0174385 0.00962843 -0.126795 0 0 255 0.847634 -0.529943 -0.0260179 
-0.0166635 0.0107674 0.245398 0 0 255 0.802126 -0.597153 0.00136648 
-0.0152701 0.0127031 -0.0216213 0 0 255 0.735674 -0.677265 -0.00973482 
-0.0164407 0.011083 0.253448 0 0 255 0.820314 -0.571899 -0.00409474 
-0.0153065 0.0126406 -0.11443 0 0 255 0.806626 -0.590788 -0.0179865 
-0.0156189 0.012219 0.0497292 0 0 255 0.804739 -0.593615 0.0041128 
-0.0168371 0.010509 0.134295 0 0 255 0.873993 -0.485849 -0.00936899 
-0.0170879 0.0101723 0.280068 0 0 255 0.825001 -0.56505 -0.00957712 
-0.0173349 0.0098326 0.356355 0 0 255 0.870897 -0.489623 -0.0425162 
-0.0158445 0.0119177 0.193403 0 0 255 0.844909 -0.534701 0.0149662 
-0.0166744 0.0107762 0.447315 0 0 255 0.822844 -0.568187 0.00958387 
-0.016425 0.0110938 0.158061 0 0 255 0.832241 -0.554373 -0.00681048 
-0.0150943 0.0129414 -0.103855 0 0 255 0.760607 -0.648959 -0.0181429 
-0.0171658 0.0100162 -0.103888 0 0 255 0.841689 -0.539823 0.0122378 
-0.0171132 0.0101456 0.354894 0 0 255 0.805708 -0.592312 -0.00136793 
-0.0158281 0.011921 0.0274897 0 0 255 0.791096 -0.611615 0.00966435 
-0.0168721 0.0104765 0.276032 0 0 255 0.883724 -0.467854 -0.0119963 
-0.0173333 0.00983142 0.326675 0 0 255 0.878249 -0.478202 0.00132466 
-0.0163551 0.0111988 0.211329 0 0 255 0.820672 -0.571319 -0.00959049 
-0.016298 0.0112542 -4.95854e-05 0 0 255 0.819894 -0.571272 0.0377123 
-0.0173726 0.00978737 0.422522 0 0 255 0.863335 -0.504616 0.00401551 
-0.0164808 0.0110051 0.0753735 0 0 255 0.851545 -0.520467 -0.0631294 
-0.0162325 0.0113662 0.163145 0 0 255 0.830511 -0.556866 -0.012314 
-0.0160923 0.0115509 0.0526163 0 0 255 0.807966 -0.589227 -0.00136712 
-0.0169074 0.0104042 0.0879398 0 0 255 0.833075 -0.553118 0.00679507 
-0.0170735 0.010195 0.299248 0 0 255 0.851667 -0.523998 -0.00947801 
-0.0168294 0.0105257 0.182637 0 0 255 0.852426 -0.522804 0.00675457 
-0.0171249 0.0100943 0.0653506 0 0 255 0.839763 -0.540746 0.0489047 
-0.0160056 0.0116926 0.213296 0 0 255 0.823366 -0.56751 0.00136093 
-0.0154866 0.0123838 -0.134213 0 0 255 0.784987 -0.619436 0.00965714 
-0.0161941 0.0114373 0.303297 0 0 255 0.766875 -0.641614 -0.0153097 
-0.0155498 0.0123005 -0.0846951 0 0 255 0.794477 -0.607217 -0.00963837 
-0.0170405 0.010235 0.244652 0 0 255 0.838865 -0.540976 -0.0604207 
-0.0172164 0.00999601 0.32301 0 0 255 0.861949 -0.50695 0.00672347 
-0.01543 0.0124618 -0.150042 0 0 255 0.794495 -0.607231 -0.00688471 
-0.0168355 0.0105014 0.0527575 0 0 255 0.865851 -0.500299 0.00133413 
-0.0175298 0.00951505 0.00245987 0 0 255 0.909414 -0.414096 0.0386135 
-0.0173658 0.00980132 0.459209 0 0 255 0.848537 -0.527394 0.0429113 
-0.0161823 0.0114548 0.31114 0 0 255 0.82097 -0.570691 -0.0178771 
-0.0163227 0.0112485 0.243861 0 0 255 0.801142 -0.59846 -0.00410842 
-0.0167006 0.0106682 -0.144649 0 0 255 0.815569 -0.578659 0.00136155 
-0.0164712 0.0110634 0.44956 0 0 255 0.829738 -0.558138 -0.004074 
-0.0164424 0.011076 0.214688 0 0 255 0.858893 -0.51211 0.00672061 
-0.0170056 0.0102504 -0.0379454 0 0 255 0.876634 -0.480734 -0.0201989 
-0.0169394 0.0103565 0.0666261 0 0 255 0.814654 -0.579946 -0.00136458 
-0.0169525 0.0103786 0.406507 0 0 255 0.877023 -0.480433 -0.00399252 
-0.0175449 0.00949184 -0.0131614 0 0 255 0.8551 -0.518447 0.00403984 
-0.0158458 0.0119161 0.19583 0 0 255 0.855044 -0.517419 0.0343116 
-0.0169604 0.0102997 -0.159205 0 0 255 0.867287 -0.479252 0.134654 
-0.0171625 0.0101196 0.718818 0 0 255 0.85279 -0.519994 -0.0485328 
-0.0169085 0.0104645 0.604311 0 0 255 0.828004 -0.560642 0.00954864 
-0.016828 0.0105714 0.547523 0 0 255 0.811146 -0.584843 -0.00136327 
-0.015458 0.0124483 0.0660205 0 0 255 0.811146 -0.584843 -0.00136327 
-0.0162585 0.0113241 0.117862 0 0 255 0.842504 -0.538606 -0.00949683 
-0.0150186 0.0130423 -0.154003 0 0 255 0.74075 -0.671779 0.00137942 
-0.0169845 0.0103233 0.322228 0 0 255 0.857179 -0.51152 0.0599328 
-0.0174276 0.00968831 0.243715 0 0 255 0.823359 -0.567506 0.00408277 
-0.0168443 0.0105146 0.265285 0 0 255 0.878674 -0.474401 0.053628 
-0.0171363 0.0100611 -0.0776756 0 0 255 0.864488 -0.502609 0.00670146 
-0.0159539 0.0117236 -0.136911 0 0 255 0.815569 -0.578659 0.00136155 
-0.0174553 0.00966262 0.355865 0 0 255 0.909229 -0.416132 0.0117404 
-0.0162153 0.0113686 -0.0196019 0 0 255 0.797367 -0.603225 -0.0180274 
-0.0167044 0.0106694 -0.0908402 0 0 255 0.815569 -0.578659 0.00136155 
-0.0163134 0.011239 0.0553268 0 0 255 0.817758 -0.57556 0.00136066 
-0.015926 0.0117718 -0.0634118 0 0 255 0.83804 -0.545606 0.00135386 
-0.0160582 0.0115855 -0.06047 0 0 255 0.818133 -0.575015 0.00409749 
-0.0170515 0.0102182 0.235055 0 0 255 0.835025 -0.549828 -0.0205671 
-0.0156081 0.0122223 -0.0511089 0 0 255 0.765342 -0.643551 0.00968787 
-0.0174208 0.00968684 0.151486 0 0 255 0.901862 -0.432006 0.00391546 
-0.0167198 0.0107128 0.452788 0 0 255 0.783405 -0.62151 0.00137199 
-0.016717 0.0106806 0.151644 0 0 255 0.82531 -0.564397 0.017852 
-0.0168231 0.0105014 -0.0937965 0 0 255 0.795618 -0.604782 0.0350802 
-0.0167823 0.0106094 0.326806 0 0 255 0.818885 -0.57252 -0.0405943 
-0.0171399 0.0100946 0.244563 0 0 255 0.85263 -0.520975 -0.040075 
-0.0155255 0.0123294 -0.129709 0 0 255 0.787121 -0.616784 -0.00412105 
-0.0172298 0.00998556 0.393794 0 0 255 0.856545 -0.516071 -0.00134045 
-0.0170864 0.0102122 0.595335 0 0 255 0.865851 -0.500299 0.00133413 
-0.0171397 0.0101292 0.530649 0 0 255 0.856681 -0.515632 -0.014887 
-0.0148913 0.0132238 -0.139619 0 0 255 0.782832 -0.622109 -0.0124699 
-0.0168687 0.0104372 -0.0929843 0 0 255 0.851981 -0.523571 -0.00134594 
-0.0159236 0.0118087 0.215448 0 0 255 0.804739 -0.593615 -0.0041128 
-0.015252 0.0127267 -0.038248 0 0 255 0.741145 -0.67056 0.0324692 
-0.0171407 0.0100519 -0.102389 0 0 255 0.817196 -0.57628 -0.00958186 
-0.0163244 0.0112294 0.104264 0 0 255 0.847634 -0.529943 -0.0260179 
-0.016724 0.0107146 0.517772 0 0 255 0.850476 -0.52597 -0.00676054 
-0.0175624 0.00946599 -0.0225912 0 0 255 0.851981 -0.523571 -0.00134594 
-0.0167972 0.0106164 0.560278 0 0 255 0.800146 -0.599766 0.00686231 
-0.0171431 0.0100646 0.0314583 0 0 255 0.878819 -0.475516 -0.0395128 
-0.0155541 0.0122959 -0.0724425 0 0 255 0.776391 -0.630214 0.00689512 
-0.0156494 0.0121663 -0.0304473 0 0 255 0.797081 -0.603682 -0.0151956 
-0.0174997 0.00955427 -0.0249456 0 0 255 0.84332 -0.537396 0.00406093 
-0.0160111 0.0116669 0.0642348 0 0 255 0.835152 -0.549978 0.00678985 
-0.0160616 0.0116025 0.12137 0 0 255 0.813727 -0.581233 0.00410282 
-0.0170006 0.0103277 0.547411 0 0 255 0.894125 -0.447723 -0.00924501 
-0.0174449 0.00967997 0.378117 0 0 255 0.847731 -0.530341 0.00949459 
-0.0165722 0.0109093 0.35301 0 0 255 0.821204 -0.570621 0.00408559 
-0.0174463 0.00966921 0.304747 0 0 255 0.863336 -0.50258 0.0454387 
-0.0165132 0.0109337 -0.138218 0 0 255 0.815569 -0.578659 0.00136155 
-0.0162159 0.0113821 0.0998304 0 0 255 0.791774 -0.610238 0.0265321 
-0.0174287 0.00964158 -0.132827 0 0 255 0.838034 -0.545602 0.00406156 
-0.0169178 0.0104319 0.441732 0 0 255 0.863808 -0.503776 -0.00671702 
-0.0166153 0.0108303 0.201574 0 0 255 0 0 0 
-0.0157372 0.0120502 0.0348671 0 0 255 0.845321 -0.534243 0.00405754 
-0.0173192 0.0098846 0.604976 0 0 255 0.855857 -0.516253 -0.0314955 
-0.0168029 0.0105864 0.376793 0 0 255 0.812385 -0.582647 0.0235273 
-0.0167957 0.0105403 -0.0923256 0 0 255 0.851667 -0.523998 0.00947801 
-0.0163578 0.0112043 0.288374 0 0 255 0.849266 -0.527922 -0.00675092 
-0.0166602 0.0107383 -0.0367308 0 0 255 0.859319 -0.510092 -0.0371226 
-0.0160458 0.0116187 0.0702098 0 0 255 0.815569 -0.578659 0.00136155 
-0.0157747 0.0119839 -0.0765842 0 0 255 0.788962 -0.614253 0.0152523 
-0.0161947 0.0114088 0.0733672 0 0 255 0.818121 -0.575006 -0.00682905 
-0.0170146 0.0102998 0.479494 0 0 255 0.846861 -0.531813 -0.00134636 
-0.0158913 0.0118248 -0.0296549 0 0 255 0.835348 -0.5491 0.0261476 
-0.0168995 0.0104069 0.0178271 0 0 255 0.838816 -0.544208 -0.0150032 
-0.0170466 0.0102541 0.476496 0 0 255 0.850494 -0.525586 0.0204774 
-0.016675 0.010773 0.427474 0 0 255 0.824619 -0.565648 0.00681503 
-0.016615 0.0108414 0.291105 0 0 255 0.856263 -0.516454 0.00943912 
-0.0161042 0.0115415 0.114482 0 0 255 0.802126 -0.597153 -0.00136648 
-0.014849 0.0132816 -0.155277 0 0 255 0.744935 -0.666961 -0.0153164 
-0.0156106 0.0122064 -0.154284 0 0 255 0.815569 -0.578659 -0.00136155 
-0.0172517 0.00994996 0.354399 0 0 255 0.897283 -0.441437 0.00392971 
-0.0157626 0.0120289 0.157093 0 0 255 0.800158 -0.599775 -0.00411745 
-0.0163198 0.0112299 0.0549354 0 0 255 0.81021 -0.586138 -0.00136629 
-0.0158911 0.0118444 0.130883 0 0 255 0.807328 -0.590024 0.00962743 
-0.016251 0.0113485 0.233846 0 0 255 0.806665 -0.591008 -0.00136491 
-0.0164714 0.0110503 0.342705 0 0 255 0.84018 -0.541203 0.0346038 
-0.0163214 0.0112695 0.403617 0 0 255 0.842093 -0.539318 -0.00405502 
-0.0165462 0.0109075 0.03178 0 0 255 0.811146 -0.584843 -0.00136327 
-0.0171371 0.010054 -0.127977 0 0 255 0.829744 -0.558142 -0.00135801 
-0.0170426 0.0102798 0.642965 0 0 255 0.832674 -0.553762 -0.00135394 
-0.0171725 0.0101022 0.692263 0 0 255 0.898255 -0.439235 0.0145093 
-0.0168813 0.0104672 0.306383 0 0 255 0.826768 -0.562529 -0.00408617 
-0.0166035 0.0108297 0.0585897 0 0 255 0.817758 -0.57556 -0.00136066 
-0.0173304 0.00978024 -0.133843 0 0 255 0.874782 -0.484515 0.00132744 
-0.015538 0.0123191 -0.0686391 0 0 255 0.727572 -0.685996 0.00692926 
-0.0162486 0.0113594 0.295981 0 0 255 0.798841 -0.601528 -0.00411067 
-0.0163577 0.0112134 0.363922 0 0 255 0.796531 -0.604596 -0.00137097 
-0.0160027 0.0116626 -0.0714689 0 0 255 0.837434 -0.545914 0.0261268 
-0.0174934 0.00955032 -0.131511 0 0 255 0.870612 -0.491969 0.00133325 
-0.0159357 0.011788 0.186478 0 0 255 0.817521 -0.5757 -0.0151138 
-0.0166938 0.0107563 0.510113 0 0 255 0.842093 -0.539318 0.00405502 
-0.0157831 0.0120034 0.184956 0 0 255 0.807966 -0.589227 0.00136712 
-0.0162398 0.0113626 0.219226 0 0 255 0.832241 -0.554373 -0.00681048 
-0.0156769 0.0121314 0.0018919 0 0 255 0.808283 -0.588716 0.00960608 
-0.016637 0.0107693 -0.0512983 0 0 255 0.826755 -0.562521 -0.00681018 
-0.0174025 0.00968033 -0.118827 0 0 255 0.823366 -0.56751 -0.00136093 
-0.0169901 0.0103076 0.255976 0 0 255 0.828004 -0.560642 0.00954864 
-0.0158929 0.0118527 0.221419 0 0 255 0.793167 -0.608965 -0.0068732 
-0.0174685 0.00963346 0.268077 0 0 255 0.862638 -0.505777 0.00670792 
-0.0168653 0.0104804 0.228559 0 0 255 0.83926 -0.543688 0.00677916 
-0.0169606 0.0103077 -0.0894385 0 0 255 0.853912 -0.520416 0.00134474 
-0.0172646 0.00990559 0.136993 0 0 255 0.881789 -0.471093 -0.0228164 
-0.0155329 0.0123391 0.0387027 0 0 255 0.805053 -0.593125 0.00963311 
-0.0171364 0.0100595 -0.0901748 0 0 255 0.904368 -0.426736 -0.00391501 
-0.0168518 0.010473 0.00762901 0 0 255 0.834327 -0.551228 0.00680528 
-0.0168934 0.0104064 -0.0587615 0 0 255 0.840077 -0.542465 0.00135278 
-0.0173134 0.00988858 0.570278 0 0 255 0.86881 -0.495129 0.00400373 
-0.0168925 0.0104331 0.153571 0 0 255 0.824631 -0.565656 -0.00408908 
-0.0175596 0.00945598 -0.139091 0 0 255 0.884909 -0.465672 0.0092869 
-0.0172713 0.00996911 0.745194 0 0 255 0.835989 -0.548745 0.00135493 
-0.0158063 0.0119704 0.182866 0 0 255 0.804402 -0.594083 -0.00136571 
-0.0170079 0.0102789 0.227772 0 0 255 0.88795 -0.459377 0.0227679 
-0.0168479 0.010489 0.0948943 0 0 255 0.825507 -0.564391 0.00135998 
-0.0171903 0.0100576 0.530238 0 0 255 0.875279 -0.483602 0.00399671 
-0.0174336 0.00965086 0.00248603 0 0 255 0.815569 -0.578659 0.00136155 
-0.0168189 0.0105351 0.137639 0 0 255 0.838844 -0.54437 -0.0013508 
-0.0164186 0.0110744 -0.0786246 0 0 255 0.794495 -0.607231 -0.00688471 
-0.0172459 0.00996285 0.39438 0 0 255 0.805708 -0.592312 -0.00136793 
-0.0169522 0.0103295 -0.00723998 0 0 255 0.846185 -0.53009 -0.0545475 
-0.0173654 0.00980771 0.508077 0 0 255 0.904841 -0.425731 -0.00390579 
-0.0163222 0.0112619 0.349939 0 0 255 0.82121 -0.570625 0.00136187 
-0.0160829 0.0115947 0.307242 0 0 255 0.755325 -0.655172 0.0153012 
-0.0154526 0.0124571 0.0764773 0 0 255 0.80796 -0.589223 0.00410132 
-0.0172196 0.00994255 -0.0857964 0 0 255 0.845716 -0.533493 0.0122174 
-0.0164335 0.0111094 0.388988 0 0 255 0.790425 -0.611987 0.0264869 
-0.016191 0.011444 0.32255 0 0 255 0.805795 -0.591473 0.0292257 
-0.0167913 0.0105775 0.166534 0 0 255 0.880908 -0.468803 -0.0649963 
-0.0159295 0.0117937 0.160365 0 0 255 0.822094 -0.569351 0.00135883 
-0.0169749 0.0102839 -0.120967 0 0 255 0.810874 -0.583998 0.0378128 
-0.0151136 0.0129123 -0.120149 0 0 255 0.780176 -0.625522 0.00690421 
-0.0158934 0.0118359 0.0862141 0 0 255 0.769006 -0.639228 -0.00414186 
-0.0166352 0.0108289 0.424301 0 0 255 0.855516 -0.517634 -0.0121637 
-0.0173503 0.00983344 0.544576 0 0 255 0.884429 -0.466672 0.00132202 
-0.015983 0.0117096 0.0889701 0 0 255 0.769349 -0.638573 0.018086 
-0.0156134 0.0122118 -0.0749339 0 0 255 0.790598 -0.611489 -0.0321836 
-0.0157574 0.0120356 0.15107 0 0 255 0.80796 -0.589223 -0.00410132 
-0.0157208 0.0120754 0.0512777 0 0 255 0.815569 -0.578659 -0.00136155 
-0.0167286 0.0106467 0.00523587 0 0 255 0.847731 -0.530341 -0.00949459 
-0.0174184 0.00968065 0.0721203 0 0 255 0.839653 -0.542985 -0.0122478 
-0.0168576 0.0105182 0.452573 0 0 255 0.88581 -0.463614 -0.020041 
-0.0169761 0.0103016 0.0414597 0 0 255 0.840497 -0.541774 0.00678915 
-0.0173362 0.00987558 0.729859 0 0 255 0.841304 -0.540548 -0.00406427 
-0.0170484 0.010257 0.521561 0 0 255 0.8551 -0.518447 -0.00403984 
-0.0169807 0.0102985 0.0696349 0 0 255 0.816854 -0.576843 0.0013637 
-0.0172037 0.0100393 0.535529 0 0 255 0.888085 -0.459354 0.017309 
-0.0170219 0.0102825 0.421813 0 0 255 0.848925 -0.528371 0.0122245 
-0.0159993 0.0116941 0.151961 0 0 255 0.81021 -0.586138 -0.00136629 
-0.0164076 0.011103 0.0308327 0 0 255 0.812439 -0.583045 -0.00136544 
-0.00932033 0.00760763 -0.161965 0 0 255 0.197138 -0.0616812 0.978433 
-0.0142313 0.00947876 -0.161965 0 0 255 0.166924 -0.278207 0.945905 
-0.0109861 0.0106755 -0.161965 0 0 255 0.156378 -0.0262532 0.987348 
-0.0116071 0.0109413 -0.161965 0 0 255 0.000977516 0.000977516 0.999999 
-0.0122761 0.00999779 -0.161965 0 0 255 0.000977516 0.000977516 0.999999 
-0.0139538 0.0104717 -0.161965 0 0 255 0.329007 0.0396856 0.943493 
-0.011156 0.0042254 -0.236222 0 0 255 0.952535 -0.304368 -0.00616129 
-0.0102213 0.00584437 -0.233888 0 0 255 0.887632 -0.458089 -0.047576 
-0.0106454 0.00510991 -0.237416 0 0 255 0.908737 -0.41158 0.0692759 
-0.0105004 0.00536094 -0.225745 0 0 255 0.925489 -0.378668 0.00898533 
-0.0112248 0.00410621 -0.204797 0 0 255 0.934017 -0.34099 0.106475 
-0.0112352 0.00408834 -0.165038 0 0 255 0.923319 -0.220515 0.314412 
-0.0105447 0.00528417 -0.23793 0 0 255 0.928924 -0.369766 -0.0193257 
-0.0106807 0.00504872 -0.223336 0 0 255 0.858423 -0.508332 -0.0686178 
-0.0109401 0.00459938 -0.195578 0 0 255 0.88215 -0.470922 -0.00663271 
-0.0108297 0.00479057 -0.229596 0 0 255 0.896771 -0.442477 -0.00393897 
-0.00956179 0.00698669 -0.234877 0 0 255 0.831185 -0.555502 -0.0234331 
-0.0107519 0.00492533 -0.192158 0 0 255 0.889912 -0.456129 0.00131449 
-0.0104827 0.00539157 -0.232126 0 0 255 0.890316 -0.455109 0.0145953 
-0.0107595 0.00491212 -0.242375 0 0 255 0.916251 -0.400127 0.0195502 
-0.00989216 0.00641448 -0.244638 0 0 255 0.615627 -0.442117 0.652331 
-0.00962359 0.00687966 -0.239852 0 0 255 0.795373 -0.605267 -0.0321504 
-0.0105763 0.00522955 -0.231353 0 0 255 0.863203 -0.504328 0.0231094 
-0.0109063 0.00465792 -0.218174 0 0 255 0 0 0 
-0.00999356 0.00623884 -0.221337 0 0 255 0.800267 -0.598448 0.037841 
-0.00967063 0.00679819 -0.236897 0 0 255 0.783646 -0.619857 0.0409473 
-0.0109813 0.00452808 -0.202077 0 0 255 0.915642 -0.390072 -0.0971758 
-0.0098246 0.0065315 -0.237966 0 0 255 0.783676 -0.621156 -0.00413186 
-0.0103563 0.00561048 -0.240902 0 0 255 0.890972 -0.454041 -0.00394818 
-0.0110173 0.00446559 -0.20305 0 0 255 0.88215 -0.470922 -0.00663271 
-0.00988771 0.00642218 -0.235513 0 0 255 0.865851 -0.500299 -0.00133413 
-0.010368 0.00559036 -0.210389 0 0 255 0.875906 -0.482479 -0.00132914 
-0.009492 0.00710759 -0.208621 0 0 255 0.827302 -0.555821 -0.0814443 
-0.0103446 0.00563076 -0.178423 0 0 255 0.901868 -0.432009 -0.00130516 
-0.0093603 0.00733569 -0.209695 0 0 255 0.817521 -0.5757 -0.0151138 
-0.00963699 0.00685645 -0.199042 0 0 255 0.850028 -0.526721 0.00404134 
-0.0102787 0.00574494 -0.174383 0 0 255 0.894671 -0.446677 0.00658815 
-0.00945589 0.00717012 -0.175337 0 0 255 0.779074 -0.626857 0.00968653 
-0.00930231 0.00743613 -0.181996 0 0 255 0.740862 -0.671622 -0.00692394 
-0.0104271 0.00548788 -0.171911 0 0 255 0.89427 -0.446465 0.0308369 
-0.00990399 0.00639399 -0.171821 0 0 255 0.801664 -0.595964 -0.0464937 
-0.00991305 0.0063783 -0.184753 0 0 255 0.856998 -0.515275 0.00672683 
-0.0099617 0.00629404 -0.193287 0 0 255 0.848511 -0.529135 0.00676643 
-0.0102813 0.00574041 -0.186381 0 0 255 0.861614 -0.506591 -0.0314059 
-0.00952728 0.00704647 -0.178883 0 0 255 0.778585 -0.627537 -0.00137317 
-0.0107876 0.00486352 -0.16952 0 0 255 0.88029 -0.474208 -0.0146938 
-0.00961239 0.00689906 -0.162225 0 0 255 0.306751 -0.81643 0.489229 
-0.00974085 0.00667655 -0.187939 0 0 255 0.816259 -0.577554 -0.0123468 
-0.0103976 0.00553908 -0.167972 0 0 255 0.836786 -0.547392 0.0122856 
-0.0100084 0.00621322 -0.177274 0 0 255 0.872392 -0.488806 -0.0013319 
-0.0100139 0.00620364 -0.202987 0 0 255 0.836546 -0.547132 0.0289415 
-0.0092636 0.00750317 -0.211335 0 0 255 0.729022 -0.684073 0.0238793 
-0.00976661 0.00663193 -0.213137 0 0 255 0.838765 -0.435783 0.326447 
-0.0094358 0.00720491 -0.22674 0 0 255 0.768168 -0.639907 -0.020912 
-0.01007 0.00610643 -0.164001 0 0 255 -0.804807 0.548381 -0.227076 
-0.0101004 0.0060538 -0.195016 0 0 255 0.847295 -0.53108 -0.00675674 
-0.0101071 0.00604222 -0.173498 0 0 255 0.885003 -0.465583 -0.00131893 
-0.0107853 0.00486751 -0.170917 0 0 255 0.885379 -0.463641 0.0337931 
-0.0103301 0.00565601 -0.179288 0 0 255 0.898698 -0.436587 0.0416437 
-0.0090279 0.00774287 -0.198355 0 0 255 0.718098 -0.695874 0.00972279 
-0.00891661 0.00783626 -0.234621 0 0 255 0.695951 -0.718088 0.0013836 
-0.00917841 0.00761658 -0.242634 0 0 255 0.658825 -0.732198 0.172731 
-0.00884951 0.00789256 -0.192658 0 0 255 0.676032 -0.736861 -0.00414743 
-0.00782676 0.00875075 -0.202918 0 0 255 0.59846 -0.801142 -0.00410842 
-0.00878079 0.00795022 -0.177851 0 0 255 0.72631 -0.687126 -0.0181927 
-0.00724894 0.00923559 -0.214254 0 0 255 -0.68893 0.724826 -0.00138062 
-0.00900622 0.00776107 -0.198275 0 0 255 0.707073 -0.707073 0.00972399 
-0.00745851 0.00905975 -0.228846 0 0 255 -0.578659 0.815569 0.00136155 
-0.00861375 0.00809039 -0.203678 0 0 255 0.7208 -0.69313 -0.00415048 
-0.00704429 0.00940732 -0.232481 0 0 255 -0.574511 0.818159 0.0235342 
-0.00752003 0.00900812 -0.238409 0 0 255 -0.652485 0.75777 0.0069266 
-0.00809977 0.00852166 -0.197818 0 0 255 -0.642481 0.7663 0.00137576 
-0.0089232 0.00783073 -0.218369 0 0 255 0.747332 -0.664449 0.00138139 
-0.00877943 0.00795137 -0.201583 0 0 255 0.727634 -0.685896 0.00973889 
-0.00912658 0.00766007 -0.190371 0 0 255 0.79607 -0.605013 -0.0152292 
-0.00747961 0.00904204 -0.223919 0 0 255 -0.646532 0.762825 0.00969106 
-0.00845046 0.0082274 -0.185205 0 0 255 0.733055 -0.679996 0.0153592 
-0.00916918 0.00762433 -0.173455 0 0 255 0.724949 -0.688631 -0.015365 
-0.00913213 0.00765541 -0.196989 0 0 255 -0.764008 0.645193 0.00414471 
-0.00890379 0.00784701 -0.182896 0 0 255 -0.683141 0.730254 -0.00692841 
-0.00766194 0.00888905 -0.221309 0 0 255 -0.705444 0.70826 -0.0267534 
-0.00852448 0.00816529 -0.208523 0 0 255 0.670261 -0.742124 -0.00138198 
-0.00849489 0.00819012 -0.229229 0 0 255 0.768047 -0.640271 0.0124999 
-0.00893927 0.00781724 -0.178057 0 0 255 0.745039 -0.665568 0.0439928 
-0.00841548 0.00825675 -0.232738 0 0 255 0.75789 -0.652203 -0.0152969 
-0.00766791 0.00888404 -0.188867 0 0 255 -0.646807 0.762653 -0.00137912 
-0.00648509 0.00987654 -0.188402 0 0 255 -0.547173 0.83661 0.0261871 
-0.00640219 0.00994611 -0.216454 0 0 255 -0.573736 0.819039 0.00136279 
-0.00640036 0.00994764 -0.196556 0 0 255 -0.553126 0.833087 -0.0040771 
-0.00861717 0.00808751 -0.166468 0 0 255 0.73709 -0.67555 -0.0181825 
-0.00727747 0.00921166 -0.178151 0 0 255 -0.658597 0.752485 -0.00414212 
-0.00708117 0.00937638 -0.207292 0 0 255 -0.640856 0.76765 -0.00413456 
-0.00845714 0.0082218 -0.163055 0 0 255 0.774975 -0.630464 0.04392 
-0.00716291 0.00930779 -0.177499 0 0 255 -0.663079 0.748548 0.00137854 
-0.007171 0.009301 -0.165325 0 0 255 -0.550553 0.83471 -0.0122952 
-0.00772287 0.00883793 -0.198605 0 0 255 -0.642481 0.7663 0.00137576 
-0.00764259 0.00890529 -0.186954 0 0 255 -0.629866 0.776604 -0.0124589 
-0.00660666 0.00977454 -0.205196 0 0 255 -0.479801 0.876217 0.0451095 
-0.00693031 0.00950296 -0.199383 0 0 255 -0.577665 0.815934 -0.0235499 
-0.00616229 0.0101474 -0.213992 0 0 255 -0.485027 0.869655 0.0919148 
-0.00716817 0.00930337 -0.163217 0 0 255 -0.608071 0.793678 0.0180067 
-0.00638045 0.00996435 -0.234028 0 0 255 -0.498524 0.864388 0.065632 
-0.00646601 0.00989256 -0.184475 0 0 255 -0.583919 0.811384 -0.0263526 
-0.00675569 0.00964948 -0.221142 0 0 255 -0.540746 0.839763 -0.0489047 
-0.00711276 0.00934987 -0.165203 0 0 255 -0.537121 0.840403 -0.0722775 
-0.00832666 0.00833129 -0.163234 0 0 255 0.642481 -0.7663 0.00137576 
-0.00665329 0.0097354 -0.195595 0 0 255 -0.601004 0.798054 0.0436326 
-0.00871986 0.00800135 -0.166869 0 0 255 0.767362 -0.639705 0.0439708 
-0.00758426 0.00895423 -0.162659 0 0 255 -0.226482 0.188958 -0.955511 
-0.00653504 0.00983463 -0.227764 0 0 255 -0.603682 0.797081 -0.0151956 
-0.006957 0.00948056 -0.16482 0 0 255 -0.519125 0.853146 -0.0514949 
-0.00749065 0.00903278 -0.169663 0 0 255 -0.60941 0.79265 -0.0180463 
-0.0150273 0.0130136 0.0731246 0 0 255 0.7208 -0.69313 0.00415048 
-0.0166131 0.0108304 0.756155 0 0 255 0.850347 -0.525093 0.0344549 
-0.0143085 0.0138544 0.63551 0 0 255 -0.724908 0.688732 0.0125224 
-0.0153876 0.0124572 0.582511 0 0 255 0.778585 -0.627537 -0.00137317 
-0.0155852 0.0122168 0.48163 0 0 255 0.777741 -0.628547 -0.00690711 
-0.0151928 0.012689 0.711378 0 0 255 0.70568 -0.708464 -0.00974312 
-0.014825 0.0132723 0.101962 0 0 255 0.771084 -0.635757 0.0352415 
-0.0147318 0.0134188 -0.0445187 0 0 255 -0.651358 0.75877 0.00137708 
-0.0165243 0.0109823 0.54381 0 0 255 0.783676 -0.621156 0.00413186 
-0.0161379 0.0115069 0.421122 0 0 255 0.786305 -0.617713 -0.0124372 
-0.0144326 0.0136691 0.773721 0 0 255 0.732842 -0.680398 0.00138012 
-0.0158104 0.0119371 0.401199 0 0 255 0.792878 -0.609379 -0.00136939 
-0.0144116 0.0136977 0.766173 0 0 255 0.759587 -0.648009 0.0557889 
-0.0147974 0.0133243 0.00823014 0 0 255 0.770674 -0.636886 -0.0209044 
-0.0146522 0.0134495 0.382949 0 0 255 0.760313 -0.64952 -0.00692452 
-0.0148061 0.0132057 0.63671 0 0 255 0.731734 -0.681172 -0.0238761 
-0.0154534 0.0123562 0.671122 0 0 255 0.786073 -0.61812 0.00412998 
-0.0159619 0.0117101 0.574116 0 0 255 0.827627 -0.561264 -0.00407698 
-0.015527 0.0123505 0.142804 0 0 255 0.789493 -0.613745 -0.0041191 
-0.0158503 0.0118461 0.629443 0 0 255 0.806018 -0.591812 0.0096118 
-0.0145267 0.0136171 0.360105 0 0 255 0 0 0 
-0.0157124 0.012001 0.774842 0 0 255 0.792878 -0.609379 -0.00136939 
-0.0156527 0.0121584 0.308648 0 0 255 0.775924 -0.63 0.0322717 
-0.0161173 0.0115139 0.537083 0 0 255 0.802739 -0.596202 -0.0123922 
-0.0158124 0.0118802 0.718764 0 0 255 0.792878 -0.609379 -0.00136939 
-0.0149133 0.0130829 0.537982 0 0 255 0.708204 -0.705388 0.0295672 
-0.0145868 0.0135349 0.382143 0 0 255 0.724858 -0.688264 0.0295573 
-0.016821 0.0105736 0.673378 0 0 255 0.850457 -0.525959 0.00946455 
-0.0154522 0.0123989 0.430138 0 0 255 0.80796 -0.589223 -0.00410132 
-0.0146253 0.0135094 0.237992 0 0 255 -0.713884 0.699858 0.0238429 
-0.0152113 0.0127064 0.467623 0 0 255 0.735593 -0.677411 -0.00415589 
-0.0154925 0.0123867 0.193882 0 0 255 0.797846 -0.602847 0.00411969 
-0.0163479 0.0112015 0.607226 0 0 255 0.840497 -0.541774 -0.00678915 
-0.0153342 0.0125775 0.285214 0 0 255 0.781002 -0.624527 0.00137259 
-0.0151513 0.012804 0.354025 0 0 255 0.741017 -0.671241 -0.0181417 
-0.0149079 0.0130898 0.538512 0 0 255 0.723512 -0.689795 -0.0266927 
-0.015035 0.0130048 0.0659614 0 0 255 0.752747 -0.658132 -0.0153054 
-0.0164642 0.0110698 0.490412 0 0 255 0.816848 -0.576839 -0.00409106 
-0.014871 0.0131055 0.728547 0 0 255 0.697373 -0.716707 -0.00138094 
-0.0151073 0.0128897 0.187803 0 0 255 0.754247 -0.655928 -0.0294957 
-0.0154742 0.0123949 0.285677 0 0 255 0.781483 -0.623803 0.0124484 
-0.0154732 0.0123691 0.444485 0 0 255 0.774144 -0.632887 -0.0124639 
-0.0158313 0.0119378 0.237031 0 0 255 0.804402 -0.594083 0.00136571 
-0.0157934 0.0119063 0.711746 0 0 255 0.792878 -0.609379 -0.00136939 
-0.0158183 0.0119459 0.288616 0 0 255 0.760313 -0.64952 0.00692452 
-0.0153252 0.012587 0.298213 0 0 255 0.762825 -0.646532 0.00969106 
-0.0169082 0.0104443 0.76438 0 0 255 0.815309 -0.578828 0.0151238 
-0.0145986 0.0134848 0.586147 0 0 255 0.766706 -0.641925 0.00970514 
-0.014647 0.0134486 0.4282 0 0 255 0.74106 -0.671016 0.0238148 
-0.0150488 0.0129976 0.00256333 0 0 255 0.724786 -0.687909 -0.0382959 
-0.0142341 0.0139409 0.696845 0 0 255 -0.739501 0.673154 0.00138225 
-0.0166478 0.0108085 0.61929 0 0 255 0.796033 -0.604985 0.0179973 
-0.015605 0.0121732 0.586212 0 0 255 0.793167 -0.608965 -0.0068732 
-0.0155998 0.012195 0.498024 0 0 255 0.814628 -0.579506 -0.0235122 
-0.0162789 0.0113266 0.400604 0 0 255 0.804402 -0.594083 0.00136571 
-0.0165113 0.0109792 0.661016 0 0 255 0.866068 -0.499706 -0.0148161 
-0.0151837 0.0127869 0.207174 0 0 255 0.795373 -0.605267 0.0321504 
-0.0144857 0.0136739 0.339565 0 0 255 -0.728889 0.68463 -0.00138309 
-0.0154152 0.0124369 0.489994 0 0 255 0.748935 -0.662466 -0.0153413 
-0.0153173 0.0125946 0.313214 0 0 255 0.786305 -0.617713 -0.0124372 
-0.0154081 0.0125113 0.108454 0 0 255 0.773794 -0.618737 -0.135675 
-0.0148667 0.013215 0.119286 0 0 255 -0.764316 0.644587 0.0180986 
-0.0143392 0.0138228 0.586412 0 0 255 -0.724863 0.688126 -0.0324987 
-0.0152009 0.0127724 0.160773 0 0 255 0.736866 -0.676037 0.00138249 
-0.0166238 0.0108463 0.581151 0 0 255 0.854361 -0.519635 -0.00674851 
-0.0145499 0.0135168 0.769997 0 0 255 0.720842 -0.693064 0.00694453 
-0.0153769 0.0124475 0.720746 0 0 255 0.792878 -0.609379 -0.00136939 
-0.0148434 0.0131397 0.738464 0 0 255 0.760442 -0.649226 0.0152923 
-0.0144482 0.0136681 0.660199 0 0 255 0.743362 -0.668888 -0.00137915 
-0.0160116 0.0116192 0.727259 0 0 255 0.794201 -0.607653 -0.00137168 
-0.0169891 0.0103399 0.759311 0 0 255 0.831382 -0.55562 -0.00955611 
-0.0164174 0.0111121 0.599778 0 0 255 0.807304 -0.590006 0.0123777 
-0.0146721 0.0134191 0.408927 0 0 255 0.769183 -0.638907 -0.0124732 
-0.0154442 0.0123948 0.515815 0 0 255 0.792878 -0.609379 -0.00136939 
-0.0150966 0.0128651 0.41455 0 0 255 0.760132 -0.649768 0.00137955 
-0.0164847 0.0110136 0.663672 0 0 255 0.82121 -0.570625 0.00136187 
-0.0148507 0.0132096 0.27351 0 0 255 0.733006 -0.680152 0.00973633 
-0.0146928 0.0133296 0.775833 0 0 255 0.792878 -0.609379 -0.00136939 
-0.0163874 0.0111688 0.49647 0 0 255 0.812769 -0.582507 -0.00959424 
-0.0161897 0.0113911 0.703303 0 0 255 0.836399 -0.548079 -0.00679999 
-0.0151183 0.0128222 0.499566 0 0 255 0.736866 -0.676037 -0.00138249 
-0.0144845 0.0136212 0.658247 0 0 255 0.773712 -0.633537 -0.00137427 
-0.0148232 0.0132693 0.133247 0 0 255 0.746399 -0.664563 0.0352741 
-0.0155567 0.0122134 0.719588 0 0 255 0.792878 -0.609379 -0.00136939 
-0.0164505 0.0110835 0.514098 0 0 255 0.799835 -0.600218 -0.00136724 
-0.0154765 0.0123614 0.464376 0 0 255 0.778585 -0.627537 0.00137317 
-0.0156526 0.0121816 0.173094 0 0 255 0.803137 -0.59201 0.0670469 
-0.0164759 0.0110167 0.711768 0 0 255 0.865374 -0.500145 -0.0313443 
-0.0160391 0.0115752 0.775062 0 0 255 0.792878 -0.609379 -0.00136939 
-0.0149699 0.012975 0.737315 0 0 255 0.702951 -0.711237 -0.00138104 
-0.0152712 0.0125977 0.647839 0 0 255 0.788169 -0.615457 -0.00137073 
-0.0147137 0.0133663 0.400931 0 0 255 0.751422 -0.659751 0.00972264 
-0.0146696 0.0134269 0.383016 0 0 255 0.762794 -0.635415 -0.119973 
-0.0151678 0.0128266 0.095827 0 0 255 0.7462 -0.665605 -0.0125061 
-0.015488 0.0122913 0.78774 0 0 255 -0.747702 0.661924 0.0528967 
-0.0163935 0.0111314 0.669273 0 0 255 0.816848 -0.576839 0.00409106 
-0.015039 0.0128825 0.752244 0 0 255 0.792878 -0.609379 -0.00136939 
-0.0149455 0.0130261 0.62456 0 0 255 0.78073 -0.624305 -0.0265364 
-0.0162226 0.011399 0.405793 0 0 255 0.79753 -0.603278 -0.00136798 
-0.0146432 0.0134696 0.333839 0 0 255 0.752485 -0.658597 -0.00414212 
-0.0154208 0.0123855 0.748949 0 0 255 0.792878 -0.609379 -0.00136939 
-0.0148506 0.01323 0.154468 0 0 255 0.773712 -0.633537 0.00137427 
-0.014913 0.0130816 0.547663 0 0 255 0.789499 -0.61375 -0.00137304 
-0.0155977 0.0122387 0.257778 0 0 255 0.791857 -0.610705 -0.00137237 
-0.0152108 0.0126701 0.684446 0 0 255 0.792878 -0.609379 -0.00136939 
-0.0161276 0.0114639 0.752016 0 0 255 0.830511 -0.556866 -0.012314 
-0.0152191 0.0127368 0.230253 0 0 255 0.739673 -0.671526 -0.0440112 
-0.0146891 0.0133636 0.605298 0 0 255 0.749918 -0.66153 0.00138106 
-0.0162394 0.0113462 0.586924 0 0 255 0.824976 -0.565033 -0.0123131 
-0.0157702 0.0119517 0.62248 0 0 255 0.795211 -0.606331 -0.00136869 
-0.0147497 0.0132709 0.685174 0 0 255 0.699361 -0.710944 -0.0738455 
-0.0162112 0.0113841 0.580072 0 0 255 0.805563 -0.592041 0.0235707 
-0.0156529 0.012157 0.31522 0 0 255 0.80759 -0.589472 -0.0179464 
-0.0148827 0.0130861 0.752568 0 0 255 0.734398 -0.677797 -0.0353756 
-0.0148003 0.0132503 0.420171 0 0 255 0.689957 -0.723546 0.0209926 
-0.0147044 0.0133535 0.547353 0 0 255 0.674625 -0.728238 0.120628 
-0.01624 0.0113296 0.680493 0 0 255 0.803429 -0.595386 0.00410611 
-0.0149835 0.0130439 0.229907 0 0 255 0.730265 -0.683151 -0.00415711 
-0.0150925 0.0128967 0.260003 0 0 255 0.803048 -0.588902 -0.0911568 
-0.0170839 0.0102136 0.775015 0 0 255 0.869727 -0.491704 0.0424591 
-0.0154993 0.0122984 0.660045 0 0 255 0.792878 -0.609379 -0.00136939 
-0.0147112 0.01335 0.515808 0 0 255 0.713999 -0.700135 0.00415922 
-0.0147317 0.0133542 0.334646 0 0 255 0.752844 -0.657865 -0.0209511 
-0.0153096 0.0125567 0.594374 0 0 255 0 0 0 
-0.0146576 0.0134742 0.196823 0 0 255 0.742299 -0.668211 -0.0498665 
-0.0150179 0.0130352 0.0178652 0 0 255 0.75249 -0.658602 0.00138072 
-0.0146778 0.0134128 0.4032 0 0 255 -0.742118 0.670256 0.00414591 
-0.0151806 0.0127908 0.20747 0 0 255 0.763307 -0.645226 -0.0323316 
-0.0157869 0.0119211 0.674115 0 0 255 0.760132 -0.649768 0.00137955 
-0.0150522 0.0128774 0.680929 0 0 255 0.793179 -0.608975 0.00412398 
-0.0148794 0.0131097 0.63922 0 0 255 0.73156 -0.681775 -0.00138291 
-0.0157953 0.0119386 0.507303 0 0 255 0.802739 -0.596202 0.0123922 
-0.015378 0.0125355 0.196691 0 0 255 0.799441 -0.600616 -0.0124265 
-0.0142654 0.0138865 0.776416 0 0 255 0.723448 -0.68947 -0.0353938 
-0.0165521 0.0109287 0.645583 0 0 255 0.845085 -0.53352 -0.0344651 
-0.0155964 0.0121572 0.745912 0 0 255 0.792878 -0.609379 -0.00136939 
-0.0149838 0.0129888 0.550187 0 0 255 0.79053 -0.612421 -0.00137007 
-0.0161602 0.0114547 0.555789 0 0 255 0.802126 -0.597153 -0.00136648 
-0.0143399 0.0138058 0.680352 0 0 255 -0.750308 0.660551 0.0266464 
-0.0154056 0.0124118 0.710671 0 0 255 0.792878 -0.609379 -0.00136939 
-0.0146315 0.0134864 0.325386 0 0 255 0.747581 -0.664052 0.0125293 
-0.0147599 0.0132931 0.477382 0 0 255 0.788444 -0.615069 0.00687996 
-0.0150574 0.0129002 0.507846 0 0 255 0.758946 -0.651117 -0.00691207 
-0.0163488 0.0111872 0.683808 0 0 255 0.85478 -0.518339 -0.0259853 
-0.0145899 0.0134931 0.603685 0 0 255 0.774485 -0.632147 0.023723 
-0.0151396 0.0128738 0.0343966 0 0 255 0.765359 -0.643566 -0.00692007 
-0.0142505 0.0139157 0.719157 0 0 255 0.732842 -0.680398 0.00138012 
-0.0156097 0.0121471 0.702553 0 0 255 0.790005 -0.612911 0.015219 
-0.0150487 0.012875 0.721957 0 0 255 0.788456 -0.615078 -0.00412804 
-0.0154029 0.0125226 0.0818722 0 0 255 0.765506 -0.643247 -0.0152823 
-0.0157946 0.0119428 0.487887 0 0 255 0.804727 -0.593606 0.00685457 
-0.0164579 0.0110437 0.691507 0 0 255 0.794201 -0.607653 -0.00137168 
-0.0158043 0.0119245 0.521367 0 0 255 0.775852 -0.630467 0.0237648 
-0.0167619 0.0106493 0.681058 0 0 255 0.844128 -0.535932 -0.0150007 
-0.016237 0.0113706 0.46231 0 0 255 0.802739 -0.596202 -0.0123922 
-0.0163025 0.0112899 0.435872 0 0 255 0.793179 -0.608975 0.00412398 
-0.016488 0.0109876 0.78992 0 0 255 0.609322 -0.511425 -0.605946 
-0.015474 0.0123848 0.346626 0 0 255 0.781506 -0.623822 -0.00968238 
-0.015751 0.0120257 0.335035 0 0 255 0.850852 -0.52476 -0.0260325 
-0.0161174 0.0115054 0.58599 0 0 255 0.820314 -0.571899 -0.00409474 
-0.0148796 0.0130963 0.716614 0 0 255 0.746223 -0.665625 0.0097273 
-0.0156636 0.0120723 0.730003 0 0 255 0.790824 -0.612029 -0.00412604 
-0.014952 0.0130984 0.151267 0 0 255 0.727668 -0.685607 0.0210309 
-0.0157248 0.0120775 0.231991 0 0 255 0.724949 -0.688631 -0.015365 
-0.0158676 0.0118511 0.468008 0 0 255 0.796531 -0.604596 0.00137097 
-0.0143871 0.0137481 0.658179 0 0 255 -0.692854 0.720848 -0.0181962 
-0.0156023 0.012176 0.590373 0 0 255 0.784534 -0.619516 -0.0265707 
-0.0154408 0.0124669 0.119144 0 0 255 0.794158 -0.607133 0.0265184 
-0.0162232 0.0113508 0.683902 0 0 255 0.792878 -0.609379 -0.00136939 
-0.0149107 0.0131012 0.450125 0 0 255 0.76301 -0.646265 0.0125084 
-0.0161568 0.0114814 0.425501 0 0 255 0.798841 -0.601528 -0.00411067 
-0.0160753 0.0115415 0.696314 0 0 255 0.806343 -0.591318 -0.0124053 
-0.0143749 0.0137937 0.484601 0 0 255 0.77905 -0.626838 -0.0124537 
-0.0149325 0.0131389 0.0624899 0 0 255 0.766682 -0.641906 0.0124776 
-0.0165658 0.0108903 0.766639 0 0 255 0.842102 -0.539109 -0.0150132 
-0.0147996 0.0132961 0.156721 0 0 255 0.763307 -0.645226 -0.0323316 
-0.0153613 0.0125325 0.341665 0 0 255 0.788456 -0.615078 -0.00412804 
-0.0144085 0.0137042 0.75204 0 0 255 0.660607 -0.749069 0.0499379 
-0.0149269 0.0130876 0.406731 0 0 255 0.756234 -0.6543 0.00137747 
-0.0158112 0.0119494 0.322849 0 0 255 0.768784 -0.639507 -0.00137528 
-0.0150631 0.0128573 0.715577 0 0 255 0.735668 -0.675904 0.0441116 
-0.0169407 0.010421 0.653484 0 0 255 0.851912 -0.521154 0.0514205 
-0.0155456 0.0122796 0.416081 0 0 255 0.831762 -0.554045 0.0347146 
-0.0149263 0.0130353 0.717149 0 0 255 0.759386 -0.650303 0.0209775 
-0.0163307 0.0112052 0.716196 0 0 255 0.839272 -0.543696 0.00406755 
-0.0157419 0.0119833 0.652813 0 0 255 0.779928 -0.625868 -0.00137553 
-0.0156981 0.0120734 0.459879 0 0 255 0.76765 -0.640856 -0.00413456 
-0.0145799 0.0135356 0.430944 0 0 255 0.785247 -0.619057 -0.0124642 
-0.0164962 0.0110033 0.635566 0 0 255 0.8488 -0.527929 -0.0287961 
-0.0152073 0.0126905 0.592006 0 0 255 0.761815 -0.647613 0.0153199 
-0.0168193 0.010558 0.777684 0 0 255 0.82531 -0.564397 -0.017852 
-0.0148342 0.013228 0.292003 0 0 255 0.749912 -0.661525 -0.00414316 
-0.0152841 0.0126203 0.416249 0 0 255 0.712619 -0.70155 -0.00138373 
-0.0150583 0.012859 0.742373 0 0 255 0.789499 -0.61375 0.00137304 
-0.0160628 0.0115543 0.71719 0 0 255 0.792878 -0.609379 -0.00136939 
-0.0152686 0.0126282 0.488922 0 0 255 0.756667 -0.653549 -0.0181154 
-0.015527 0.0122731 0.596774 0 0 255 0.776155 -0.63054 -0.00137373 
-0.014958 0.0131273 -0.0639559 0 0 255 0.758946 -0.651117 0.00691207 
-0.0149432 0.0131228 0.0759612 0 0 255 0.781002 -0.624527 0.00137259 
-0.0156071 0.0121729 0.571668 0 0 255 0.790035 -0.612935 -0.0124524 
-0.0148403 0.0131572 0.659943 0 0 255 0.792878 -0.609379 -0.00136939 
-0.0156938 0.0120259 0.771205 0 0 255 0.792878 -0.609379 -0.00136939 
-0.0152195 0.0126659 0.643158 0 0 255 0.75505 -0.655665 0.00138035 
-0.0153204 0.012577 0.393516 0 0 255 0.799835 -0.600218 -0.00136724 
-0.0156661 0.0121033 0.528881 0 0 255 0.765161 -0.643838 0.00137867 
-0.015081 0.0128397 0.681567 0 0 255 0.776155 -0.63054 -0.00137373 
-0.015618 0.0121697 0.507641 0 0 255 0.792878 -0.609379 -0.00136939 
-0.0156279 0.0121541 0.523586 0 0 255 0.804402 -0.594083 -0.00136571 
-0.015348 0.0125395 0.402027 0 0 255 0.792878 -0.609379 -0.00136939 
-0.0171437 0.0101438 0.727319 0 0 255 0.853977 -0.519514 0.0287857 
-0.0165862 0.0108616 0.778767 0 0 255 0.83556 -0.549316 0.00954147 
-0.015211 0.0127292 0.336743 0 0 255 0.765155 -0.643833 0.00413597 
-0.0149322 0.0130649 0.49902 0 0 255 0.745129 -0.665649 -0.0411595 
-0.0162094 0.0114132 0.423528 0 0 255 0.78258 -0.622475 0.00966148 
-0.0158241 0.0119483 0.230766 0 0 255 0.810204 -0.586134 0.00409884 
-0.016185 0.0113963 0.709607 0 0 255 0.808912 -0.587928 -0.0013641 
-0.0162935 0.0112793 0.566098 0 0 255 0.850494 -0.525586 -0.0204774 
-0.015499 0.0123681 0.253834 0 0 255 0.776155 -0.63054 -0.00137373 
-0.0156142 0.0121958 0.382862 0 0 255 0.811811 -0.58379 -0.0123626 
-0.014751 0.0133546 0.185118 0 0 255 0.716748 -0.697264 -0.00974221 
-0.015028 0.012957 0.399343 0 0 255 0.744734 -0.667359 0.0013817 
-0.0152893 0.0125635 0.709739 0 0 255 0.715339 -0.698541 0.0181984 
-0.0159551 0.0117567 0.353317 0 0 255 0.798841 -0.601528 -0.00411067 
-0.0158217 0.0118609 0.760712 0 0 255 0.7663 -0.642481 -0.00137576 
-0.0150667 0.0128422 0.776718 0 0 255 0.792878 -0.609379 -0.00136939 
-0.0159837 0.0117148 0.380292 0 0 255 0.801142 -0.59846 0.00410842 
-0.0147953 0.013321 0.0433348 0 0 255 0.801463 -0.598004 -0.00687361 
-0.0147893 0.0132176 0.694858 0 0 255 0.687795 -0.717378 0.110935 
-0.0155641 0.0121932 0.781142 0 0 255 0.78872 -0.614677 -0.00966907 
-0.0144956 0.0136217 0.569839 0 0 255 0.711237 -0.702918 -0.00693213 
-0.0150133 0.0129399 0.61155 0 0 255 0.776155 -0.63054 -0.00137373 
-0.0146549 0.0134939 0.102802 0 0 255 0.739306 -0.661954 -0.123466 
-0.0159037 0.0117847 0.581281 0 0 255 0.791857 -0.610705 0.00137237 
-0.0154576 0.0123442 0.710186 0 0 255 0.792878 -0.609379 -0.00136939 
-0.0143665 0.0137604 0.742985 0 0 255 0.676807 -0.734042 -0.0558044 
-0.0156996 0.0120851 0.380007 0 0 255 0.76164 -0.64788 0.0124859 
-0.0168537 0.0105128 0.780327 0 0 255 0.827803 -0.558872 -0.0490239 
-0.0147052 0.0133634 0.483267 0 0 255 0.780563 -0.624729 0.0208707 
-0.0153328 0.0125799 0.281928 0 0 255 0.746103 -0.665817 -0.00415271 
-0.0151223 0.0128036 0.578401 0 0 255 0.769207 -0.638927 0.0097017 
-0.0163685 0.0111441 0.786262 0 0 255 0.804057 -0.594423 0.0124125 
-0.0147041 0.0134236 0.138872 0 0 255 0.748829 -0.662692 -0.00972505 
-0.0150272 0.012895 0.7692 0 0 255 0.779928 -0.625868 -0.00137553 
-0.0155096 0.0123222 0.441272 0 0 255 0.799835 -0.600218 0.00136724 
-0.0147095 0.0134316 0.0506293 0 0 255 0.718083 -0.695945 0.00415077 
-0.01673 0.0107027 0.612057 0 0 255 0.820672 -0.571319 -0.00959049 
-0.0148833 0.0131073 0.623519 0 0 255 0.743505 -0.666146 0.0587355 
-0.0156441 0.0121938 0.166493 0 0 255 0.761989 -0.646919 -0.0294692 
-0.0149272 0.0131472 0.054506 0 0 255 0.780402 -0.625153 -0.0124753 
-0.0145334 0.0135661 0.607579 0 0 255 0.76765 -0.640856 -0.00413456 
-0.0158102 0.0118989 0.626177 0 0 255 0.76072 -0.648643 -0.0238163 
-0.0146052 0.0135307 0.266155 0 0 255 0.745129 -0.665649 0.0411595 
-0.0144308 0.0136717 0.772413 0 0 255 0.75877 -0.651358 0.00137708 
-0.0152421 0.0126713 0.438503 0 0 255 0.798847 -0.601533 -0.00137023 
-0.0163294 0.0112221 0.627332 0 0 255 0.799835 -0.600218 0.00136724 
-0.0164253 0.0111126 0.536708 0 0 255 0.814347 -0.580102 -0.0179129 
-0.0156603 0.0121537 0.277858 0 0 255 0.790812 -0.61202 -0.00687663 
-0.0148965 0.0130984 0.574616 0 0 255 -0.723559 0.690228 0.00694394 
-0.0146796 0.0133852 0.550893 0 0 255 0.718088 -0.695951 -0.0013836 
-0.0156849 0.012086 0.486399 0 0 255 0.803429 -0.595386 0.00410611 
-0.0167224 0.010692 0.732259 0 0 255 0.818485 -0.574448 -0.00959698 
-0.01664 0.0108021 0.717001 0 0 255 0.848006 -0.527741 0.048736 
-0.0159893 0.0116634 0.638768 0 0 255 0.848894 -0.528352 0.0149405 
-0.0153936 0.0125156 0.193771 0 0 255 0.713988 -0.700124 0.00693192 
-0.0151922 0.0128107 0.00296557 0 0 255 0.765155 -0.643833 0.00413597 
-0.0161068 0.0115281 0.533672 0 0 255 0.801445 -0.597991 -0.00962284 
-0.0151443 0.0127822 0.536136 0 0 255 0.730254 -0.683141 -0.00692841 
-0.0167088 0.0107068 0.749848 0 0 255 0.803757 -0.594918 -0.00686972 
-0.0154706 0.012369 0.464831 0 0 255 0.791309 -0.611151 0.0180158 
-0.0148685 0.0131742 0.345188 0 0 255 0.787648 -0.615999 -0.0124584 
-0.0150945 0.0129169 0.12653 0 0 255 0.764316 -0.644587 -0.0180986 
-0.0143768 0.0137889 0.497385 0 0 255 -0.72627 0.687238 -0.0153339 
-0.0164331 0.0111025 0.536393 0 0 255 0.798847 -0.601533 0.00137023 
-0.0164748 0.0110425 0.569716 0 0 255 0.826252 -0.563166 0.0123321 
-0.0148606 0.0132476 -0.0250588 0 0 255 0.750045 -0.661315 0.00970484 
-0.0143617 0.0137696 0.726459 0 0 255 -0.761478 0.648154 0.00690996 
-0.0161377 0.0114945 0.494965 0 0 255 0.769384 -0.638603 0.0153042 
-0.0159337 0.0117555 0.522921 0 0 255 0.811502 -0.584336 -0.0041054 
-0.0156069 0.0121582 0.659379 0 0 255 0.802739 -0.596202 0.0123922 
-0.0168103 0.0105678 0.789202 0 0 255 0.877945 -0.456993 -0.14272 
-0.0155202 0.0122618 0.714668 0 0 255 0.747327 -0.664444 0.00414414 
-0.0148131 0.0133015 0.0210978 0 0 255 0.768784 -0.639507 -0.00137528 
-0.0152099 0.0127564 0.185692 0 0 255 0.79753 -0.603278 -0.00136798 
-0.0143659 0.0137815 0.624178 0 0 255 0.733035 -0.679774 -0.0238271 
-0.0152988 0.0126112 0.357543 0 0 255 0.801148 -0.598464 0.00136948 
-0.0151394 0.0127859 0.551127 0 0 255 0.800459 -0.599311 -0.00964408 
-0.0152313 0.0126416 0.695057 0 0 255 0.792878 -0.609379 -0.00136939 
-0.0147255 0.0134142 0.0300917 0 0 255 0.757752 -0.65247 0.00969701 
-0.0160328 0.0116398 0.4447 0 0 255 0.833916 -0.551876 -0.00406788 
-0.0148682 0.0131218 0.65383 0 0 255 0.767863 -0.640577 0.00691768 
-0.0170665 0.0102408 0.74863 0 0 255 0.822094 -0.569351 -0.00135883 
-0.0160131 0.0116098 0.77132 0 0 255 0.840497 -0.541774 0.00678915 
-0.0161713 0.011444 0.534211 0 0 255 0.82552 -0.562918 0.0405077 
-0.0147075 0.0133535 0.523261 0 0 255 0.772599 -0.634881 -0.00413155 
-0.0144717 0.013654 0.563323 0 0 255 0.7208 -0.69313 0.00415048 
-0.0143802 0.0137525 0.684744 0 0 255 -0.715358 0.69869 0.00972332 
-0.0146234 0.0134936 0.344648 0 0 255 0.747327 -0.664444 -0.00414414 
-0.0147401 0.0133475 0.309694 0 0 255 0.712614 -0.701544 0.00415115 
-0.0166346 0.0108129 0.694586 0 0 255 0.798841 -0.601528 -0.00411067 
-0.0147568 0.0133676 0.0641714 0 0 255 0.740973 -0.671464 0.00973136 
-0.0153215 0.0126271 0.0915475 0 0 255 0.796525 -0.604591 0.00411287 
-0.0150325 0.013011 0.0486818 0 0 255 0.765536 -0.643272 0.0125042 
-0.0150646 0.0128537 0.725184 0 0 255 0.809171 -0.5871 0.023595 
-0.016379 0.0111491 0.675976 0 0 255 0.81021 -0.586138 -0.00136629 
-0.015648 0.0121786 0.225969 0 0 255 0.772829 -0.634577 0.0069126 
-0.0153495 0.0125973 0.0517714 0 0 255 0.800434 -0.599292 -0.0123992 
-0.0156258 0.0122154 0.179684 0 0 255 0.783925 -0.62078 0.00967809 
-0.0154415 0.0123606 0.736031 0 0 255 0.784741 -0.619822 -0.00137433 
-0.0150982 0.0128877 0.26927 0 0 255 0.756412 -0.654082 -0.00414851 
-0.0161729 0.0114532 0.468539 0 0 255 0.782802 -0.622085 -0.0152404 
-0.0156913 0.0120518 0.638786 0 0 255 0.792878 -0.609379 -0.00136939 
-0.0154978 0.0122814 0.771238 0 0 255 0.792878 -0.609379 -0.00136939 
-0.0154363 0.0124675 0.149885 0 0 255 0.723233 -0.688997 0.0470744 
-0.0163833 0.0111459 0.662328 0 0 255 0.816854 -0.576843 -0.0013637 
-0.0152605 0.0125963 0.737529 0 0 255 0.792878 -0.609379 -0.00136939 
-0.0147171 0.0133993 0.181611 0 0 255 0.720829 -0.692944 0.0153368 
-0.0151039 0.0129148 0.0667648 0 0 255 0.775472 -0.631198 -0.0152597 
-0.0147538 0.013272 0.647175 0 0 255 0.762981 -0.64624 0.0152874 
-0.0162647 0.0113439 0.407649 0 0 255 0.835989 -0.548745 0.00135493 
-0.0148314 0.0132741 0.0420634 0 0 255 0.743494 -0.668729 0.0041536 
-0.016302 0.011252 0.661331 0 0 255 0.792878 -0.609379 -0.00136939 
-0.0162244 0.0113381 0.749242 0 0 255 0.792878 -0.609379 -0.00136939 
-0.0146254 0.0134898 0.351634 0 0 255 0.719425 -0.694569 -0.00138085 
-0.0150497 0.0128845 0.658667 0 0 255 0.803429 -0.595386 0.00410611 
-0.0155059 0.0122938 0.635779 0 0 255 0.792878 -0.609379 -0.00136939 
-0.0155449 0.0122935 0.340196 0 0 255 0.79753 -0.603278 -0.00136798 
-0.0158388 0.0119088 0.349928 0 0 255 0.77167 -0.635901 0.0124686 
-0.0156517 0.0121257 0.507647 0 0 255 0.800158 -0.599775 0.00411745 
-0.0158138 0.0119372 0.374356 0 0 255 0.812411 -0.579889 0.0609663 
-0.015227 0.0127234 0.248594 0 0 255 0.7775 -0.628881 0.00137611 
-0.0152895 0.0126178 0.389958 0 0 255 0.79053 -0.612421 0.00137007 
-0.015785 0.0119516 0.510273 0 0 255 0.777495 -0.628876 -0.00412829 
-0.016074 0.0115537 0.634805 0 0 255 0.790035 -0.612935 0.0124524 
-0.0150318 0.0129283 0.538759 0 0 255 0.783493 -0.615498 -0.0854456 
-0.0146636 0.0134626 0.219372 0 0 255 0.73833 -0.674369 0.00973317 
-0.0148506 0.0131813 0.440063 0 0 255 0.7208 -0.69313 -0.00415048 
-0.016059 0.0116009 0.472181 0 0 255 0.804739 -0.593615 0.0041128 
-0.0150832 0.0129588 -0.0323147 0 0 255 0.743604 -0.668549 0.0097294 
-0.0153539 0.0124799 0.706882 0 0 255 0.722215 -0.691601 0.00974085 
-0.0158611 0.011836 0.606221 0 0 255 0.795211 -0.606331 -0.00136869 
-0.0143451 0.0137827 0.775806 0 0 255 0.704256 -0.709835 0.0125511 
-0.0147268 0.0133401 0.454798 0 0 255 0.730182 -0.683251 0.00138031 
-0.0166518 0.0108032 0.61996 0 0 255 0.833922 -0.55188 -0.00135597 
-0.0150457 0.0129889 0.0774259 0 0 255 0.756401 -0.654072 -0.00691408 
-0.0168633 0.0105066 0.743319 0 0 255 0.806665 -0.591008 0.00136491 
-0.0156162 0.0122254 0.194246 0 0 255 0.795211 -0.606331 -0.00136869 
-0.015774 0.0119303 0.719318 0 0 255 0.792878 -0.609379 -0.00136939 
-0.0144943 0.013606 0.672386 0 0 255 0.74106 -0.671016 -0.0238148 
-0.0158119 0.0119071 0.565786 0 0 255 0.775054 -0.631882 -0.00412995 
-0.016862 0.0105257 0.640513 0 0 255 0.816607 -0.576995 0.0151479 
-0.0153764 0.0124995 0.420096 0 0 255 0.799835 -0.600218 0.00136724 
-0.0169131 0.0104379 0.764961 0 0 255 0.830273 -0.556739 -0.0262482 
-0.0149544 0.0131313 -0.0603052 0 0 255 0.74075 -0.671779 0.00137942 
-0.0169455 0.0104004 0.737915 0 0 255 0.856281 -0.516466 0.00674237 
-0.0167168 0.0107217 0.601357 0 0 255 0.82927 -0.558767 0.00956324 
-0.0160724 0.0115864 0.455059 0 0 255 0.8255 -0.564387 0.0040799 
-0.014956 0.0130313 0.513349 0 0 255 0.728889 -0.68463 -0.00138309 
-0.0154965 0.0122972 0.688172 0 0 255 0.807304 -0.590006 -0.0123777 
-0.0162263 0.011382 0.477265 0 0 255 0.796531 -0.604596 -0.00137097 
-0.015246 0.0126082 0.778595 0 0 255 0.758047 -0.651948 -0.0181484 
-0.015599 0.0121486 0.775824 0 0 255 0.792878 -0.609379 -0.00136939 
-0.0153287 0.0126104 0.134417 0 0 255 0.803757 -0.594918 -0.00686972 
-0.0150254 0.0129558 0.426616 0 0 255 0.736866 -0.676037 0.00138249 
-0.016908 0.0104572 0.691515 0 0 255 0.855841 -0.511813 0.0747275 
-0.014797 0.0132303 0.561887 0 0 255 0.723518 -0.689669 0.0296177 
-0.0165932 0.010865 0.705773 0 0 255 0.866322 -0.499441 0.00669492 
-0.0162041 0.0114043 0.516212 0 0 255 0.802126 -0.597153 -0.00136648 
-0.0158783 0.011788 0.755994 0 0 255 0.751272 -0.659957 0.00691779 
-0.0153939 0.012453 0.55818 0 0 255 0.775059 -0.631887 0.00137666 
-0.0146132 0.0134988 0.392105 0 0 255 0.739591 -0.672986 0.0097132 
-0.0149037 0.0131117 0.442141 0 0 255 0.75777 -0.652485 -0.0069266 
-0.0146927 0.0133759 0.505487 0 0 255 -0.800761 0.593742 -0.0790698 
-0.0144192 0.0136892 0.758605 0 0 255 0.738307 -0.674348 -0.0125137 
-0.0160858 0.0115316 0.673542 0 0 255 0.792878 -0.609379 -0.00136939 
0.0144558 0.0114317 0.791332 0 0 255 0.471354 0.259475 0.84291 
0.0129689 0.0130264 0.791332 0 0 255 0.0974013 0.0295487 0.994806 
-0.0129314 0.0102016 0.791332 0 0 255 -0.183455 0.140438 0.972945 
0.0140397 0.0108188 0.791332 0 0 255 0.000977516 0.000977516 0.999999 
