ply
format ascii 1.0
comment Created by Open3D
element vertex 1324
property double x
property double y
property double z
property uchar red
property uchar green
property uchar blue
end_header
-0.037877 0.193984 0.747255 0 0 255
-0.0415289 0.193315 1.67348 0 0 255
-0.0528342 0.191035 3.04209 0 0 255
-0.0528144 0.190612 -0.0145068 0 0 255
-0.0370978 0.194014 -0.25453 0 0 255
-0.023817 0.19691 -0.302759 0 0 255
-0.0506008 0.191479 2.73039 0 0 255
-0.038569 0.193624 -0.742711 0 0 255
-0.0620886 0.188695 0.774208 0 0 255
-0.0606863 0.189007 0.810268 0 0 255
-0.0358114 0.19451 1.2878 0 0 255
-0.0403031 0.193824 3.40709 0 0 255
-0.0415181 0.193332 1.77972 0 0 255
-0.0642016 0.18803 -0.68742 0 0 255
-0.0470258 0.191785 -0.676785 0 0 255
-0.0380491 0.194364 3.74093 0 0 255
-0.0325823 0.195266 1.64404 0 0 255
-0.0455857 0.192344 1.07049 0 0 255
-0.0544468 0.190114 -1.02719 0 0 255
-0.0460123 0.192497 2.83731 0 0 255
-0.0497403 0.191845 4.0033 0 0 255
-0.05311 0.190667 0.839676 0 0 255
-0.0327708 0.195125 0.930871 0 0 255
-0.0458976 0.192487 2.58505 0 0 255
-0.0524064 0.190991 2.05717 0 0 255
-0.0531695 0.191267 5.23455 0 0 255
-0.0557902 0.190464 3.58608 0 0 255
-0.0327696 0.194937 -0.422017 0 0 255
-0.0446758 0.192777 2.75254 0 0 255
-0.0346594 0.194469 -0.81003 0 0 255
-0.0314962 0.195082 -1.37284 0 0 255
-0.0382321 0.194202 2.86729 0 0 255
-0.0485087 0.191743 1.34712 0 0 255
-0.0433564 0.193257 4.12548 0 0 255
-0.0480451 0.192114 3.27661 0 0 255
-0.0368677 0.194084 -0.115995 0 0 255
-0.0550445 0.190368 1.72666 0 0 255
-0.0331281 0.195187 1.93248 0 0 255
-0.0459781 0.192566 3.27497 0 0 255
-0.026022 0.196485 0.103335 0 0 255
-0.0528443 0.191227 4.43755 0 0 255
-0.0321623 0.195279 1.08205 0 0 255
-0.0446494 0.192796 2.84225 0 0 255
-0.0619524 0.188736 0.852406 0 0 255
-0.0593281 0.189302 0.797581 0 0 255
-0.0425693 0.193002 1.06157 0 0 255
-0.0479395 0.192187 3.63721 0 0 255
-0.028124 0.195848 -1.17044 0 0 255
-0.0395241 0.193453 -0.476894 0 0 255
-0.0496817 0.192222 6.61465 0 0 255
-0.0498829 0.191072 -1.31134 0 0 255
-0.0526042 0.191099 3.14316 0 0 255
-0.0490781 0.191252 -1.28178 0 0 255
-0.0426039 0.193006 1.14621 0 0 255
-0.0526751 0.190423 -1.58596 0 0 255
-0.0633616 0.188115 -1.39052 0 0 255
-0.0491884 0.192185 5.5735 0 0 255
-0.0576119 0.189664 0.706176 0 0 255
-0.0382288 0.193684 -0.850688 0 0 255
-0.0506785 0.191995 6.54588 0 0 255
-0.0492548 0.191864 3.38122 0 0 255
-0.0557096 0.190348 2.62909 0 0 255
-0.0404503 0.193945 4.49897 0 0 255
-0.032031 0.195183 0.184333 0 0 255
-0.0501076 0.191145 -0.439189 0 0 255
-0.041082 0.193204 0.178784 0 0 255
-0.0232884 0.196968 -0.715983 0 0 255
-0.0517086 0.191244 2.77854 0 0 255
-0.0471867 0.192756 6.53258 0 0 255
-0.0463442 0.192031 0.0176268 0 0 255
-0.0528223 0.19164 7.36164 0 0 255
-0.0284131 0.195909 -0.274244 0 0 255
-0.0589849 0.189725 3.29358 0 0 255
-0.0348943 0.194874 2.45812 0 0 255
-0.037149 0.194237 1.42527 0 0 255
-0.0589307 0.189271 -0.0491262 0 0 255
-0.0623951 0.188484 -0.259943 0 0 255
-0.0584492 0.189197 -1.33255 0 0 255
-0.0542415 0.19064 2.41779 0 0 255
-0.0564677 0.19042 4.33177 0 0 255
-0.0551326 0.190407 2.14273 0 0 255
-0.0555416 0.190663 4.61841 0 0 255
-0.0618097 0.188593 -0.393757 0 0 255
-0.0562276 0.189657 -1.51637 0 0 255
-0.0376043 0.194246 2.20255 0 0 255
-0.0598925 0.189226 1.13579 0 0 255
-0.0495697 0.191411 0.624614 0 0 255
-0.0343101 0.194664 0.0371363 0 0 255
-0.0545046 0.190262 0.124446 0 0 255
-0.0453151 0.192581 2.34498 0 0 255
-0.0511818 0.191592 4.4508 0 0 255
-0.0326175 0.194816 -1.52267 0 0 255
-0.0570462 0.189859 1.21487 0 0 255
-0.0558183 0.190272 2.25162 0 0 255
-0.0307958 0.195589 1.15945 0 0 255
-0.0332389 0.194938 0.320565 0 0 255
-0.0464752 0.192292 2.09102 0 0 255
-0.051618 0.191305 3.07843 0 0 255
-0.0394864 0.193881 2.53205 0 0 255
-0.0524416 0.191337 4.59744 0 0 255
-0.026754 0.196153 -1.12991 0 0 255
-0.0574618 0.189799 1.43897 0 0 255
-0.0363021 0.194252 0.202737 0 0 255
-0.0555866 0.190275 1.9118 0 0 255
-0.056926 0.189999 2.03078 0 0 255
-0.0603847 0.189169 1.5016 0 0 255
-0.0330498 0.195012 0.556035 0 0 255
-0.042493 0.192867 -0.0213272 0 0 255
-0.0382924 0.193882 0.668905 0 0 255
-0.0573713 0.18976 1.01331 0 0 255
-0.0570453 0.190096 2.91017 0 0 255
-0.0266431 0.196221 -0.816754 0 0 255
-0.0429117 0.193102 2.31788 0 0 255
-0.0497543 0.192024 5.31156 0 0 255
-0.0324834 0.195365 2.19916 0 0 255
-0.0497238 0.191543 1.81692 0 0 255
-0.039053 0.193806 1.31469 0 0 255
-0.0595892 0.189119 -0.104046 0 0 255
-0.0376873 0.194437 3.69922 0 0 255
-0.0528981 0.190835 1.70885 0 0 255
-0.0443465 0.192625 1.14633 0 0 255
-0.0534279 0.190622 1.01892 0 0 255
-0.0436028 0.193063 3.11871 0 0 255
-0.0322239 0.195421 2.19088 0 0 255
-0.0486295 0.191962 3.10096 0 0 255
-0.0592307 0.189635 3.03043 0 0 255
-0.0356914 0.194366 0.0676332 0 0 255
-0.0534184 0.191009 3.7765 0 0 255
-0.0549462 0.190736 4.21182 0 0 255
-0.0510081 0.190853 -1.11889 0 0 255
-0.0526045 0.19145 5.65581 0 0 255
-0.0414258 0.193761 4.71384 0 0 255
-0.0568504 0.189994 1.87383 0 0 255
-0.0516125 0.190909 0.229423 0 0 255
-0.0417327 0.1931 0.458275 0 0 255
-0.0373848 0.193884 -0.734763 0 0 255
-0.0395857 0.193964 3.28264 0 0 255
-0.0211452 0.197387 -1.06842 0 0 255
-0.0607064 0.18896 0.504481 0 0 255
-0.0218527 0.197219 -1.16521 0 0 255
-0.054312 0.190511 1.60602 0 0 255
-0.060469 0.188725 -1.55115 0 0 255
-0.0335037 0.194791 -0.313284 0 0 255
-0.0274705 0.196056 -0.697631 0 0 255
-0.0486172 0.192486 6.83792 0 0 255
-0.0472597 0.192106 1.9858 0 0 255
-0.0550091 0.190039 -0.685684 0 0 255
-0.0402409 0.193373 0.0780912 0 0 255
-0.0354699 0.19438 -0.181704 0 0 255
-0.0631731 0.188356 0.0433444 0 0 255
-0.0463914 0.191822 -1.40862 0 0 255
-0.0470145 0.192221 2.42559 0 0 255
-0.0456231 0.192634 3.20637 0 0 255
-0.0431847 0.192868 1.06897 0 0 255
-0.0330994 0.194754 -1.21612 0 0 255
-0.0444663 0.192755 2.26198 0 0 255
-0.0585594 0.189401 0.306793 0 0 255
-0.0347611 0.194932 2.66424 0 0 255
-0.0494054 0.191212 -1.05416 0 0 255
-0.0584476 0.189384 0.00683289 0 0 255
-0.0348495 0.194907 2.62585 0 0 255
-0.0508549 0.191295 1.80855 0 0 255
-0.0567132 0.190145 2.74168 0 0 255
-0.0499455 0.191319 0.55412 0 0 255
-0.0501025 0.191821 4.39687 0 0 255
-0.0307159 0.195647 1.45467 0 0 255
-0.0486271 0.192324 5.69141 0 0 255
-0.0343721 0.194842 1.41014 0 0 255
-0.0519977 0.190729 -0.460414 0 0 255
-0.0410114 0.193497 2.16896 0 0 255
-0.054281 0.190829 3.8364 0 0 255
-0.0488617 0.191984 3.62692 0 0 255
-0.0460444 0.192753 4.71991 0 0 255
-0.0437808 0.192519 -0.500041 0 0 255
-0.0590296 0.189559 2.17543 0 0 255
-0.04843 0.192282 5.08328 0 0 255
-0.0469546 0.192182 2.05347 0 0 255
-0.0387473 0.193618 -0.508717 0 0 255
-0.0291301 0.195861 0.504579 0 0 255
-0.045707 0.192565 2.84806 0 0 255
-0.0493884 0.191149 -1.53187 0 0 255
-0.0462802 0.192597 3.975 0 0 255
-0.0481189 0.192189 3.93051 0 0 255
-0.0519174 0.190856 0.326318 0 0 255
-0.0340446 0.194574 -1.02681 0 0 255
-0.0524105 0.190708 0.0355369 0 0 255
-0.0520859 0.191074 2.15065 0 0 255
-0.0323362 0.195016 -0.53258 0 0 255
-0.0403086 0.193707 2.57432 0 0 255
-0.0343786 0.194743 0.71027 0 0 255
-0.0355188 0.194301 -0.671611 0 0 255
-0.0617729 0.188844 1.34412 0 0 255
-0.0625064 0.188359 -0.984594 0 0 255
-0.0575983 0.189718 1.0664 0 0 255
-0.0572674 0.189628 -0.0919189 0 0 255
-0.0485285 0.191586 0.253368 0 0 255
-0.0493263 0.192058 4.88436 0 0 255
-0.0455284 0.19208 -0.908738 0 0 255
-0.0342147 0.19475 0.50402 0 0 255
-0.057053 0.190136 3.20908 0 0 255
-0.0553548 0.190583 3.75515 0 0 255
-0.0367832 0.194456 2.42327 0 0 255
-0.0349051 0.194581 0.377495 0 0 255
-0.0363591 0.194423 1.52236 0 0 255
-0.0371774 0.194247 1.53817 0 0 255
-0.0421685 0.192988 0.33318 0 0 255
-0.0473969 0.192531 5.24682 0 0 255
-0.0501083 0.191687 3.44503 0 0 255
-0.0334615 0.194923 0.563421 0 0 255
-0.02796 0.19591 -0.97697 0 0 255
-0.0574139 0.189717 0.775026 0 0 255
-0.045518 0.192855 4.62761 0 0 255
-0.0419561 0.192796 -1.3753 0 0 255
-0.0323819 0.194937 -1.02631 0 0 255
-0.0253858 0.196399 -1.5096 0 0 255
-0.0622067 0.188474 -0.629224 0 0 255
-0.0616144 0.188733 0.303521 0 0 255
-0.0560467 0.190083 1.2526 0 0 255
-0.0562511 0.190341 3.42477 0 0 255
-0.0412936 0.193088 -0.318429 0 0 255
-0.0583868 0.189448 0.372588 0 0 255
-0.048649 0.191777 1.80702 0 0 255
-0.0452062 0.192292 0.102454 0 0 255
-0.0384988 0.193579 -1.17484 0 0 255
-0.0368279 0.194044 -0.45885 0 0 255
-0.038748 0.193918 1.63941 0 0 255
-0.0528527 0.190862 1.83514 0 0 255
-0.0435311 0.193105 3.30829 0 0 255
-0.0485082 0.191956 2.86593 0 0 255
-0.0485943 0.192093 3.9845 0 0 255
-0.0419936 0.193193 1.53343 0 0 255
-0.0292033 0.195732 -0.305547 0 0 255
-0.0459922 0.192833 5.21285 0 0 255
-0.062759 0.188313 -0.912223 0 0 255
-0.0504768 0.191057 -0.488135 0 0 255
-0.0441526 0.193248 5.30239 0 0 255
-0.0489531 0.192103 4.62168 0 0 255
-0.0509861 0.191667 4.67779 0 0 255
-0.0402084 0.193434 0.461704 0 0 255
-0.0311096 0.195522 1.17061 0 0 255
-0.0275161 0.196157 0.0937455 0 0 255
-0.0420446 0.192907 -0.435679 0 0 255
-0.0326598 0.195059 0.281767 0 0 255
-0.0457659 0.192206 0.364914 0 0 255
-0.0405855 0.193383 0.684588 0 0 255
-0.0454581 0.19243 1.4871 0 0 255
-0.0502492 0.192139 6.90957 0 0 255
-0.061196 0.189022 1.71727 0 0 255
-0.0501373 0.191952 5.3929 0 0 255
-0.0484506 0.192112 3.89579 0 0 255
-0.0447636 0.19267 2.11929 0 0 255
-0.0464941 0.192122 0.906812 0 0 255
-0.0366189 0.19453 2.69086 0 0 255
-0.0466148 0.192439 3.36387 0 0 255
-0.0550891 0.19068 4.03063 0 0 255
-0.0355188 0.19484 3.18972 0 0 255
-0.056757 0.189596 -1.12398 0 0 255
-0.0355832 0.194409 0.203517 0 0 255
-0.0292534 0.195836 0.514223 0 0 255
-0.0526576 0.190698 0.353571 0 0 255
-0.0467686 0.191978 0.306042 0 0 255
-0.0483793 0.191899 2.25847 0 0 255
-0.026222 0.196356 -0.509496 0 0 255
-0.0404396 0.193403 0.599668 0 0 255
-0.0333279 0.194984 0.791673 0 0 255
-0.0451873 0.192148 -0.954336 0 0 255
-0.0258866 0.196379 -0.870217 0 0 255
-0.0410101 0.193729 3.83217 0 0 255
-0.045946 0.191893 -1.59633 0 0 255
-0.0314214 0.195111 -1.28444 0 0 255
-0.0298769 0.195673 0.325759 0 0 255
-0.0455054 0.192756 3.90019 0 0 255
-0.0560182 0.190488 4.11529 0 0 255
-0.0312357 0.195327 -0.0299134 0 0 255
-0.0396667 0.193377 -0.797814 0 0 255
-0.0583523 0.189736 2.37646 0 0 255
-0.0397098 0.193929 3.22797 0 0 255
-0.0499879 0.191282 0.356961 0 0 255
-0.0528371 0.190505 -0.75115 0 0 255
-0.0315435 0.195507 1.74222 0 0 255
-0.0565969 0.190381 4.24925 0 0 255
-0.0509641 0.191698 4.86613 0 0 255
-0.0501197 0.191285 0.582621 0 0 255
-0.0577518 0.189902 2.63046 0 0 255
-0.0490304 0.191405 -0.263351 0 0 255
-0.0412684 0.192995 -1.02414 0 0 255
-0.046526 0.192653 4.7612 0 0 255
-0.0406846 0.193659 2.819 0 0 255
-0.0266862 0.196229 -0.691579 0 0 255
-0.0347758 0.194739 1.30276 0 0 255
-0.0511865 0.191325 2.5404 0 0 255
-0.0551035 0.190912 5.71553 0 0 255
-0.0388567 0.194052 2.77028 0 0 255
-0.0465062 0.191884 -0.780669 0 0 255
-0.0300597 0.195667 0.564765 0 0 255
-0.0295885 0.195593 -0.700144 0 0 255
-0.0354829 0.194514 0.801436 0 0 255
-0.059358 0.18904 -1.03533 0 0 255
-0.0392384 0.193759 1.26999 0 0 255
-0.0346659 0.194558 -0.166843 0 0 255
-0.0579378 0.189654 1.14555 0 0 255
-0.0514768 0.1917 5.68749 0 0 255
-0.04326 0.193282 4.15162 0 0 255
-0.0448941 0.192268 -0.554253 0 0 255
-0.0378165 0.193943 0.362412 0 0 255
-0.0507865 0.19147 2.95819 0 0 255
-0.0517578 0.190786 -0.426759 0 0 255
-0.0354893 0.194773 2.66634 0 0 255
-0.0551367 0.190416 2.21868 0 0 255
-0.0591368 0.189173 -0.423581 0 0 255
-0.0437661 0.193262 4.79753 0 0 255
-0.0639755 0.187968 -1.48046 0 0 255
-0.0494756 0.191675 2.3742 0 0 255
-0.0269596 0.196328 0.449448 0 0 255
-0.0589123 0.18937 0.635951 0 0 255
-0.0341565 0.194954 1.87337 0 0 255
-0.0523032 0.191499 5.53928 0 0 255
-0.0218025 0.197236 -1.12459 0 0 255
-0.0305562 0.195603 0.883628 0 0 255
-0.0473335 0.191645 -1.19541 0 0 255
-0.0354483 0.194538 0.915103 0 0 255
-0.0378227 0.194239 2.49016 0 0 255
-0.0411137 0.193422 1.79296 0 0 255
-0.0495871 0.191376 0.402602 0 0 255
-0.0574594 0.189799 1.43013 0 0 255
-0.0597701 0.188957 -0.979336 0 0 255
-0.0383238 0.193678 -0.73939 0 0 255
-0.0508845 0.192075 7.4431 0 0 255
-0.0472581 0.191832 0.0260594 0 0 255
-0.0519089 0.191421 4.36315 0 0 255
-0.0605672 0.189102 1.30586 0 0 255
-0.0233905 0.196829 -1.55377 0 0 255
-0.0577655 0.189434 -0.700758 0 0 255
-0.0493741 0.1921 5.26081 0 0 255
-0.0322578 0.19522 0.803634 0 0 255
-0.0248686 0.196544 -1.28088 0 0 255
-0.0569647 0.190037 2.3613 0 0 255
-0.0537403 0.191351 6.73163 0 0 255
-0.043163 0.193325 4.30768 0 0 255
-0.0329635 0.195238 2.04292 0 0 255
-0.0574099 0.189692 0.591445 0 0 255
-0.0384112 0.19401 1.77642 0 0 255
-0.0212089 0.197359 -1.17415 0 0 255
-0.0347058 0.194706 0.95455 0 0 255
-0.0344769 0.194939 2.26737 0 0 255
-0.0591317 0.189689 3.25985 0 0 255
-0.021282 0.197351 -1.11699 0 0 255
-0.0451179 0.192991 4.97477 0 0 255
-0.0266657 0.196334 0.0318757 0 0 255
-0.0526148 0.190452 -1.47346 0 0 255
-0.0369708 0.194562 3.47242 0 0 255
-0.0531844 0.191476 6.75322 0 0 255
-0.0443842 0.192535 0.560693 0 0 255
-0.0612392 0.188721 -0.370019 0 0 255
-0.0535707 0.19025 -1.42976 0 0 255
-0.0227785 0.197047 -0.946384 0 0 255
-0.0566829 0.190291 3.7413 0 0 255
-0.0444202 0.192451 0.0132166 0 0 255
-0.0554875 0.190084 0.383419 0 0 255
-0.0568617 0.189629 -0.724694 0 0 255
-0.0272212 0.196049 -1.14272 0 0 255
-0.0280465 0.196043 0.105275 0 0 255
-0.0424283 0.192863 -0.15535 0 0 255
-0.043036 0.192738 -0.0994929 0 0 255
-0.047901 0.192116 3.0654 0 0 255
-0.038736 0.193684 -0.053365 0 0 255
-0.0418223 0.192827 -1.35814 0 0 255
-0.0251514 0.196633 -0.199411 0 0 255
-0.0419356 0.193424 3.09418 0 0 255
-0.052269 0.191357 4.46522 0 0 255
-0.0394075 0.19334 -1.46644 0 0 255
-0.0284463 0.196081 1.00534 0 0 255
-0.0341168 0.195045 2.46101 0 0 255
-0.0480107 0.192449 5.62408 0 0 255
-0.0236724 0.196897 -0.61992 0 0 255
-0.0320157 0.195355 1.39459 0 0 255
-0.0442774 0.192955 3.40443 0 0 255
-0.0494733 0.191157 -1.34687 0 0 255
-0.0535196 0.191242 5.59867 0 0 255
-0.047496 0.192317 3.86757 0 0 255
-0.0491628 0.191664 1.80382 0 0 255
-0.0357349 0.194631 2.03217 0 0 255
-0.0595241 0.189468 2.29166 0 0 255
-0.0540617 0.191001 4.72662 0 0 255
-0.0547866 0.190643 3.29474 0 0 255
-0.0626077 0.18856 0.6205 0 0 255
-0.0621095 0.188455 -0.914199 0 0 255
-0.0343929 0.194471 -1.21889 0 0 255
-0.0550141 0.190459 2.32964 0 0 255
-0.0500666 0.192108 6.3992 0 0 255
-0.0351277 0.194318 -1.16305 0 0 255
-0.0519625 0.191755 6.84025 0 0 255
-0.041596 0.192997 -0.496675 0 0 255
-0.0243769 0.196674 -1.11928 0 0 255
-0.0565578 0.190309 3.67305 0 0 255
-0.0569796 0.189963 1.85733 0 0 255
-0.0231709 0.196885 -1.4958 0 0 255
-0.0213024 0.197347 -1.10688 0 0 255
-0.047666 0.191925 1.33063 0 0 255
-0.0584986 0.18956 1.34688 0 0 255
-0.033685 0.19483 0.244197 0 0 255
-0.0389178 0.193775 0.885075 0 0 255
-0.0469866 0.192633 5.33935 0 0 255
-0.0377916 0.193731 -1.19882 0 0 255
-0.0390564 0.194129 3.63572 0 0 255
-0.0523511 0.190674 -0.298081 0 0 255
-0.0494668 0.191384 0.269906 0 0 255
-0.0470759 0.192175 2.19356 0 0 255
-0.0527509 0.190643 0.106755 0 0 255
-0.0196977 0.197665 -1.34332 0 0 255
-0.0497475 0.191566 2.01898 0 0 255
-0.041197 0.1934 1.76334 0 0 255
-0.03343 0.194768 -0.596655 0 0 255
-0.0510862 0.19083 -1.16171 0 0 255
-0.048082 0.192486 5.99978 0 0 255
-0.0461858 0.192505 3.16517 0 0 255
-0.0514867 0.19139 3.48135 0 0 255
-0.0341049 0.194801 0.699984 0 0 255
-0.0516056 0.190969 0.647237 0 0 255
-0.0293077 0.195781 0.207835 0 0 255
-0.0492666 0.192211 5.88161 0 0 255
-0.0603514 0.189251 2.03633 0 0 255
-0.0394406 0.193793 1.83139 0 0 255
-0.0447773 0.192406 0.247399 0 0 255
-0.0417583 0.193125 0.6755 0 0 255
-0.0280325 0.196097 0.471833 0 0 255
-0.0607419 0.188928 0.329933 0 0 255
-0.0283137 0.195899 -0.504304 0 0 255
-0.0442644 0.193018 3.83015 0 0 255
-0.040793 0.193134 -0.773782 0 0 255
-0.0279493 0.195856 -1.38465 0 0 255
-0.040008 0.19325 -1.16801 0 0 255
-0.0470199 0.192027 1.04404 0 0 255
-0.04153 0.193709 4.50349 0 0 255
-0.0491989 0.191939 3.82897 0 0 255
-0.0389684 0.193965 2.32599 0 0 255
-0.0511153 0.190777 -1.49388 0 0 255
-0.0459127 0.192069 -0.389493 0 0 255
-0.0327327 0.194922 -0.587807 0 0 255
-0.0331127 0.195165 1.75125 0 0 255
-0.0449869 0.192322 -0.0215766 0 0 255
-0.0401851 0.193983 4.35698 0 0 255
-0.0367647 0.194125 0.0174734 0 0 255
-0.0370588 0.194278 1.57372 0 0 255
-0.0510595 0.191528 3.80154 0 0 255
-0.035204 0.194786 2.30876 0 0 255
-0.037709 0.194405 3.50761 0 0 255
-0.0533797 0.191209 5.1453 0 0 255
-0.0581397 0.189345 -0.758796 0 0 255
-0.029684 0.195873 1.45818 0 0 255
-0.0518981 0.190787 -0.200624 0 0 255
-0.0320544 0.195419 1.91365 0 0 255
-0.0502873 0.191443 1.98331 0 0 255
-0.0556056 0.190387 2.74506 0 0 255
-0.0608435 0.188915 0.398429 0 0 255
-0.0260957 0.196444 -0.0726687 0 0 255
-0.0461922 0.191945 -0.834422 0 0 255
-0.0249021 0.196582 -0.953578 0 0 255
-0.0430614 0.192522 -1.60415 0 0 255
-0.0485555 0.192269 5.18818 0 0 255
-0.0237719 0.196843 -0.851202 0 0 255
-0.0454033 0.192606 2.66342 0 0 255
-0.0615822 0.188494 -1.46003 0 0 255
-0.03409 0.194767 0.433825 0 0 255
-0.045187 0.192663 2.73348 0 0 255
-0.0546193 0.190238 0.127673 0 0 255
-0.0532013 0.191313 5.61256 0 0 255
-0.0393264 0.193707 1.03939 0 0 255
-0.0396272 0.193818 2.30198 0 0 255
-0.0540316 0.19118 5.9591 0 0 255
-0.0528037 0.191471 6.12409 0 0 255
-0.0453539 0.192904 4.72316 0 0 255
-0.0313996 0.195322 0.191119 0 0 255
-0.0498603 0.191873 4.38902 0 0 255
-0.0626334 0.188497 0.207652 0 0 255
-0.0554798 0.18988 -1.08614 0 0 255
-0.0366748 0.194488 2.48035 0 0 255
-0.051555 0.190876 -0.0940999 0 0 255
-0.060708 0.188689 -1.43524 0 0 255
-0.0545402 0.190334 0.692396 0 0 255
-0.0549528 0.190475 2.34718 0 0 255
-0.0458483 0.192414 1.98522 0 0 255
-0.0360414 0.194368 0.629717 0 0 255
-0.0538417 0.190886 3.55769 0 0 255
-0.0597836 0.189232 1.00955 0 0 255
-0.0391788 0.193923 2.35417 0 0 255
-0.0507979 0.191637 4.17018 0 0 255
-0.0415753 0.193729 4.71415 0 0 255
-0.052595 0.190587 -0.538309 0 0 255
-0.0476112 0.192607 6.12806 0 0 255
-0.0288641 0.196016 1.19286 0 0 255
-0.0218423 0.197164 -1.57902 0 0 255
-0.0538874 0.190366 -0.0980113 0 0 255
-0.0398544 0.193796 2.49797 0 0 255
-0.046401 0.191957 -0.424785 0 0 255
-0.0366671 0.194477 2.38938 0 0 255
-0.0414768 0.193205 0.803236 0 0 255
-0.0599216 0.189268 1.483 0 0 255
-0.0451633 0.193075 5.648 0 0 255
-0.0317324 0.195487 1.9005 0 0 255
-0.0379423 0.19408 1.5383 0 0 255
-0.0459622 0.191939 -1.24224 0 0 255
-0.0460189 0.19238 2.00657 0 0 255
-0.0465102 0.192633 4.59337 0 0 255
-0.0544779 0.190217 -0.241499 0 0 255
-0.0484356 0.192444 6.25157 0 0 255
-0.0490808 0.191825 2.82891 0 0 255
-0.057965 0.189276 -1.52066 0 0 255
-0.0481253 0.19158 -0.423905 0 0 255
-0.0372643 0.194292 1.99529 0 0 255
-0.0336155 0.194845 0.246129 0 0 255
-0.0495706 0.192268 6.77243 0 0 255
-0.047988 0.19233 4.73454 0 0 255
-0.0422224 0.193287 2.56079 0 0 255
-0.0334657 0.195091 1.77531 0 0 255
-0.0503059 0.191721 3.99816 0 0 255
-0.0486832 0.192378 6.16552 0 0 255
-0.0519561 0.191352 3.94148 0 0 255
-0.0526327 0.191093 3.14829 0 0 255
-0.0348622 0.194464 -0.529435 0 0 255
-0.0448119 0.192845 3.44881 0 0 255
-0.0454107 0.19222 -0.091565 0 0 255
-0.0484942 0.191955 2.84029 0 0 255
-0.0565994 0.190252 3.33404 0 0 255
-0.0571679 0.189651 -0.0835447 0 0 255
-0.0452141 0.192567 2.09147 0 0 255
-0.0634671 0.188152 -0.9569 0 0 255
-0.0577049 0.190085 3.86809 0 0 255
-0.0479293 0.191574 -0.777416 0 0 255
-0.0491892 0.192011 4.32952 0 0 255
-0.0388181 0.193639 -0.250525 0 0 255
-0.0506269 0.191785 4.9645 0 0 255
-0.0384421 0.194201 3.18827 0 0 255
-0.0237103 0.196753 -1.59641 0 0 255
-0.0414093 0.19293 -1.26957 0 0 255
-0.0375444 0.193768 -1.31617 0 0 255
-0.0496183 0.192007 4.97385 0 0 255
-0.0591468 0.189107 -0.886752 0 0 255
-0.0498934 0.192078 5.91381 0 0 255
-0.0298602 0.195594 -0.265765 0 0 255
-0.0425653 0.192748 -0.763916 0 0 255
-0.0571963 0.189791 0.962624 0 0 255
-0.0592615 0.189044 -1.15588 0 0 255
-0.0276745 0.195972 -0.980385 0 0 255
-0.0429704 0.192575 -1.36968 0 0 255
-0.0550834 0.190907 5.65414 0 0 255
-0.0368541 0.194407 2.17886 0 0 255
-0.0335192 0.19467 -1.15891 0 0 255
-0.03613 0.194558 2.12668 0 0 255
-0.0545677 0.190534 2.17072 0 0 255
-0.0429807 0.192779 0.107517 0 0 255
-0.0488174 0.191332 -1.11607 0 0 255
-0.0293402 0.19552 -1.60999 0 0 255
-0.0593103 0.189276 0.582885 0 0 255
-0.0439768 0.193169 4.46539 0 0 255
-0.0404186 0.193928 4.32993 0 0 255
-0.0464217 0.192852 6.01985 0 0 255
-0.0384777 0.193531 -1.55725 0 0 255
-0.0567797 0.190416 4.78861 0 0 255
-0.0517351 0.191363 3.67633 0 0 255
-0.0434124 0.192819 1.07416 0 0 255
-0.0519657 0.191084 2.03387 0 0 255
-0.0194148 0.197703 -1.51553 0 0 255
-0.0612497 0.188928 1.1256 0 0 255
-0.051869 0.191823 7.17744 0 0 255
-0.0635109 0.188053 -1.60116 0 0 255
-0.056333 0.190203 2.56217 0 0 255
-0.0467387 0.192068 0.90392 0 0 255
-0.0547901 0.190758 4.1249 0 0 255
-0.0445322 0.193043 4.42906 0 0 255
-0.048315 0.191563 -0.252048 0 0 255
-0.0433424 0.192665 -0.140503 0 0 255
-0.0547695 0.190038 -1.06537 0 0 255
-0.0438316 0.192663 0.612433 0 0 255
-0.0415479 0.193763 4.91752 0 0 255
-0.0285167 0.195773 -1.09187 0 0 255
-0.0574716 0.18948 -0.831784 0 0 255
-0.0519399 0.19134 3.82862 0 0 255
-0.0335246 0.194711 -0.853264 0 0 255
-0.0462203 0.192188 0.950482 0 0 255
-0.0290639 0.195633 -1.23771 0 0 255
-0.0380014 0.193771 -0.577983 0 0 255
-0.0595902 0.188993 -1.00772 0 0 255
-0.0531806 0.190837 2.17197 0 0 255
-0.0477917 0.192113 2.8731 0 0 255
-0.0454461 0.192902 4.85233 0 0 255
-0.0403981 0.193568 1.71765 0 0 255
-0.0475357 0.192521 5.39796 0 0 255
-0.0480583 0.191846 1.3795 0 0 255
-0.0543622 0.190973 4.99146 0 0 255
-0.033887 0.194944 1.37827 0 0 255
-0.0205238 0.197486 -1.33248 0 0 255
-0.0516557 0.191731 6.18721 0 0 255
-0.0305652 0.195494 0.117793 0 0 255
-0.0547257 0.190186 -0.0748121 0 0 255
-0.0319472 0.195434 1.85697 0 0 255
-0.0260433 0.196345 -0.861757 0 0 255
-0.0278092 0.196157 0.550344 0 0 255
-0.0639067 0.188197 0.0485652 0 0 255
-0.0483956 0.192462 6.32246 0 0 255
-0.0349315 0.194564 0.293812 0 0 255
-0.0413673 0.193105 -0.0848196 0 0 255
-0.0471221 0.192646 5.64344 0 0 255
-0.0502123 0.192092 6.51211 0 0 255
-0.0562448 0.190174 2.21688 0 0 255
-0.0309515 0.195319 -0.531704 0 0 255
-0.0499147 0.191684 3.12223 0 0 255
-0.0537388 0.190981 4.07748 0 0 255
-0.0282982 0.195916 -0.407091 0 0 255
-0.0466188 0.192387 2.9988 0 0 255
-0.00356306 0.198301 7.74256 0 0 255
-0.0411801 0.193475 6.9801 0 0 255
-0.0208825 0.196679 3.75468 0 0 255
-0.0088767 0.197762 6.7734 0 0 255
-0.0413756 0.193687 5.53439 0 0 255
-0.0289827 0.195083 6.96338 0 0 255
-0.00905102 0.197991 5.24122 0 0 255
-0.0165257 0.196919 5.7768 0 0 255
-0.0279451 0.195733 3.85035 0 0 255
-0.0257675 0.196556 0.602479 0 0 255
-0.0246537 0.195736 6.46193 0 0 255
-0.0373223 0.194471 4.02157 0 0 255
-0.0210844 0.196714 3.38441 0 0 255
-0.0150334 0.196853 7.36734 0 0 255
-0.0336506 0.194326 7.82879 0 0 255
-0.0201051 0.196716 4.14815 0 0 255
-0.0172044 0.197173 3.69441 0 0 255
-0.00454954 0.198291 7.02053 0 0 255
-0.0275182 0.195452 5.89502 0 0 255
-0.00917542 0.197922 5.56264 0 0 255
-0.0435251 0.19303 7.80593 0 0 255
-0.0312565 0.195192 4.48879 0 0 255
-0.04026 0.193889 5.2001 0 0 255
-0.0306621 0.194906 6.69701 0 0 255
-0.0242377 0.196267 3.57772 0 0 255
-0.0385441 0.194225 4.53296 0 0 255
-0.0160092 0.197806 0.812689 0 0 255
-0.0199169 0.196504 5.58535 0 0 255
-0.0446375 0.192877 7.84445 0 0 255
-0.0298839 0.195287 5.00912 0 0 255
-0.0126939 0.19778 3.61805 0 0 255
-0.0266877 0.196303 1.40194 0 0 255
-0.018725 0.196669 5.53828 0 0 255
-0.0219773 0.195951 7.2941 0 0 255
-0.0376695 0.194386 4.25603 0 0 255
-0.0266318 0.196264 1.68491 0 0 255
-0.0181187 0.196358 7.90379 0 0 255
-0.0144874 0.197507 3.84011 0 0 255
-0.033565 0.194718 5.5206 0 0 255
-0.0220255 0.196858 1.75652 0 0 255
-0.0242689 0.196597 1.54825 0 0 255
-0.0212448 0.196797 2.74955 0 0 255
-0.0331671 0.19494 4.49495 0 0 255
-0.0310778 0.195148 4.90082 0 0 255
-0.0267696 0.195699 4.99649 0 0 255
-0.0293605 0.19496 7.40941 0 0 255
-0.0211478 0.195997 7.67845 0 0 255
-0.0182868 0.19719 2.72708 0 0 255
-0.0313158 0.194687 7.50274 0 0 255
-0.0233963 0.19653 2.652 0 0 255
-0.00284602 0.198503 7.0911 0 0 255
-0.0110505 0.197955 3.8671 0 0 255
-0.00283661 0.198493 7.15797 0 0 255
-0.0203124 0.197167 1.25108 0 0 255
-0.0332502 0.19522 2.72773 0 0 255
-0.0300182 0.195093 6.07884 0 0 255
-0.00288418 0.198522 6.946 0 0 255
-0.0279647 0.195655 4.31041 0 0 255
-0.0346386 0.194201 7.79941 0 0 255
-0.0359244 0.194586 4.43693 0 0 255
-0.0149526 0.197362 4.34401 0 0 255
-0.0507208 0.192093 7.73897 0 0 255
-0.0307439 0.19527 4.42576 0 0 255
-0.0319939 0.195116 4.35964 0 0 255
-0.00802 0.198267 4.39283 0 0 255
-0.0179573 0.197293 2.36915 0 0 255
-0.0276222 0.195986 2.5796 0 0 255
-0.0280903 0.195363 5.98019 0 0 255
-0.012103 0.198137 1.92089 0 0 255
-0.0257591 0.196569 0.527753 0 0 255
-0.0115155 0.197502 6.24239 0 0 255
-0.0158807 0.197685 1.6498 0 0 255
-0.0148805 0.197144 5.72431 0 0 255
-0.0341135 0.194614 5.71446 0 0 255
-0.0254561 0.196355 2.06642 0 0 255
-0.0360241 0.19449 4.93754 0 0 255
-0.021555 0.196332 5.32405 0 0 255
-0.0171231 0.197422 2.25327 0 0 255
-0.00644046 0.198063 6.88927 0 0 255
-0.0130413 0.197742 3.56905 0 0 255
-0.0279387 0.195089 7.76076 0 0 255
-0.0280701 0.195946 2.46397 0 0 255
-0.0397418 0.193573 7.53018 0 0 255
-0.0268717 0.196173 2.04187 0 0 255
-0.0381158 0.194328 4.25379 0 0 255
-0.0148433 0.197714 2.29988 0 0 255
-0.0289888 0.195299 5.65241 0 0 255
-0.0350511 0.194238 7.24588 0 0 255
-0.00937887 0.197754 6.41924 0 0 255
-0.0105971 0.197533 6.78796 0 0 255
-0.0243319 0.196262 3.53101 0 0 255
-0.0182412 0.196514 6.8649 0 0 255
-0.0289428 0.194957 7.75924 0 0 255
-0.030077 0.194898 7.21036 0 0 255
-0.00238643 0.198497 7.49588 0 0 255
-0.0125713 0.197454 5.68963 0 0 255
-0.0115012 0.197407 6.8259 0 0 255
-0.0263252 0.195554 6.23271 0 0 255
-0.017688 0.196912 4.89203 0 0 255
-0.0203221 0.196128 7.54191 0 0 255
-0.0363573 0.194309 5.76985 0 0 255
-0.0228461 0.195918 6.79777 0 0 255
-0.0134496 0.197883 2.38791 0 0 255
-0.0370851 0.193916 7.57472 0 0 255
-0.0171348 0.197053 4.47821 0 0 255
-0.0112528 0.197682 5.35935 0 0 255
-0.0184022 0.197728 -0.627156 0 0 255
-0.0252321 0.196343 2.32348 0 0 255
-0.0301264 0.194907 7.11998 0 0 255
-0.0378207 0.19382 7.56607 0 0 255
-0.0235758 0.19646 2.93483 0 0 255
-0.0135948 0.197245 6.13936 0 0 255
-0.0413029 0.193654 5.79542 0 0 255
-0.020046 0.196604 4.87526 0 0 255
-0.0323928 0.194522 7.64368 0 0 255
-0.0379881 0.194181 5.24771 0 0 255
-0.0298846 0.195297 4.95026 0 0 255
-0.0165746 0.197216 3.9357 0 0 255
-0.0297038 0.195129 6.11202 0 0 255
-0.0271106 0.196042 2.64583 0 0 255
-0.0178896 0.197242 2.72944 0 0 255
-0.030738 0.195289 4.31508 0 0 255
-0.0430265 0.193443 5.69931 0 0 255
-0.00654299 0.198093 6.62634 0 0 255
-0.0110278 0.198137 2.77878 0 0 255
-0.0400855 0.194025 4.5196 0 0 255
-0.0135383 0.19796 1.85354 0 0 255
-0.0241888 0.196316 3.31954 0 0 255
-0.0215927 0.196162 6.32093 0 0 255
-0.0189241 0.197374 1.10542 0 0 255
-0.0237753 0.196766 0.919152 0 0 255
-0.0186092 0.197576 0.13314 0 0 255
-0.0471221 0.192724 6.78591 0 0 255
-0.00966625 0.197668 6.71106 0 0 255
-0.0406545 0.193609 6.5834 0 0 255
-0.0400216 0.193971 4.89525 0 0 255
-0.015865 0.197871 0.5366 0 0 255
-0.0249788 0.195783 5.91516 0 0 255
-0.00978375 0.197805 5.78883 0 0 255
-0.0177644 0.196471 7.50242 0 0 255
-0.00733066 0.198344 4.47415 0 0 255
-0.0232715 0.196678 1.85344 0 0 255
-0.0464718 0.192775 6.99933 0 0 255
-0.0170448 0.196518 7.79336 0 0 255
-0.0244724 0.196321 3.05878 0 0 255
-0.025146 0.196003 4.4526 0 0 255
-0.0207502 0.197316 -0.000756217 0 0 255
-0.0181749 0.197884 -1.38926 0 0 255
-0.0343763 0.194358 7.05603 0 0 255
-0.01536 0.196944 6.55498 0 0 255
-0.0235865 0.196938 0.0302106 0 0 255
-0.0242469 0.196524 2.00729 0 0 255
-0.0132439 0.197566 4.47289 0 0 255
-0.0329385 0.19449 7.4004 0 0 255
-0.02325 0.19673 1.55711 0 0 255
-0.0141761 0.197543 3.86739 0 0 255
-0.0401402 0.193812 5.76364 0 0 255
-0.0174562 0.196563 7.18949 0 0 255
-0.0191303 0.196444 6.5796 0 0 255
-0.0314755 0.195492 2.4962 0 0 255
-0.0235303 0.195833 6.7726 0 0 255
-0.0133715 0.197536 4.55447 0 0 255
-0.0322307 0.194915 5.39325 0 0 255
-0.00492028 0.198422 5.9261 0 0 255
-0.0186785 0.197268 1.94164 0 0 255
-0.0392096 0.193612 7.7211 0 0 255
-0.0292136 0.195589 3.71664 0 0 255
-0.00859068 0.198191 4.40131 0 0 255
-0.0198857 0.197508 -0.475442 0 0 255
-0.0294195 0.195346 5.02347 0 0 255
-0.0426802 0.193494 5.66337 0 0 255
-0.0271088 0.195385 6.63011 0 0 255
-0.0255108 0.195708 5.94705 0 0 255
-0.0141125 0.197697 2.98777 0 0 255
-0.0196739 0.197195 1.59095 0 0 255
-0.027055 0.195619 5.25542 0 0 255
-0.0318451 0.195242 3.71537 0 0 255
-0.0103137 0.1976 6.60797 0 0 255
-0.0447355 0.193072 6.58497 0 0 255
-0.0168258 0.197713 0.724424 0 0 255
-0.0244772 0.19594 5.36602 0 0 255
-0.0259581 0.195516 6.75672 0 0 255
-0.0283396 0.195846 2.85577 0 0 255
-0.0407228 0.193862 4.99629 0 0 255
-0.0203836 0.197214 0.911339 0 0 255
-0.047186 0.192675 7.03194 0 0 255
-0.022059 0.196219 5.60147 0 0 255
-0.0186145 0.1974 1.19692 0 0 255
-0.0168136 0.197308 3.1882 0 0 255
-0.00697344 0.198105 6.21132 0 0 255
-0.0240926 0.196216 3.99967 0 0 255
-0.0117285 0.197365 6.8989 0 0 255
-0.0473614 0.19267 6.9238 0 0 255
-0.0391828 0.193837 6.37598 0 0 255
-0.0108133 0.197344 7.75873 0 0 255
-0.0176488 0.197466 1.56577 0 0 255
-0.0270691 0.19518 7.90247 0 0 255
-0.0334718 0.194756 5.36219 0 0 255
-0.0378881 0.194059 6.06596 0 0 255
-0.0194899 0.197603 -0.734919 0 0 255
-0.023534 0.195862 6.58915 0 0 255
-0.020847 0.196074 7.44996 0 0 255
-0.0265436 0.19618 2.26398 0 0 255
-0.0314592 0.195137 4.66063 0 0 255
-0.0216974 0.19718 0.0663702 0 0 255
-0.0144956 0.198028 0.672146 0 0 255
-0.00561678 0.198213 6.63834 0 0 255
-0.0200959 0.196851 3.3414 0 0 255
-0.0114113 0.197859 4.15907 0 0 255
-0.0391924 0.194058 5.02915 0 0 255
-0.0389974 0.193839 6.51508 0 0 255
-0.0209961 0.196183 6.67289 0 0 255
-0.00620713 0.19807 7.03437 0 0 255
-0.0257207 0.195494 7.07641 0 0 255
-0.0248709 0.19642 2.14036 0 0 255
-0.00807567 0.198315 4.05645 0 0 255
-0.0272479 0.19583 3.82017 0 0 255
-0.0193655 0.197526 -0.168879 0 0 255
-0.0175789 0.196657 6.52455 0 0 255
-0.0354845 0.19424 6.88689 0 0 255
-0.0388264 0.193733 7.29373 0 0 255
-0.0318931 0.194831 6.16845 0 0 255
-0.0189178 0.196677 5.33552 0 0 255
-0.0461611 0.19267 7.88235 0 0 255
-0.0314551 0.19524 4.04008 0 0 255
-0.0217082 0.195954 7.49153 0 0 255
-0.0256735 0.195608 6.42581 0 0 255
-0.0205277 0.19634 6.09265 0 0 255
-0.00485621 0.198138 7.69717 0 0 255
-0.0156244 0.197316 4.08748 0 0 255
-0.0332077 0.19457 6.70479 0 0 255
-0.0225151 0.19635 4.44665 0 0 255
-0.0181428 0.197366 1.77686 0 0 255
-0.0158084 0.197511 2.75844 0 0 255
-0.0272174 0.195774 4.18693 0 0 255
-0.0216296 0.197186 0.084484 0 0 255
-0.0241429 0.195785 6.57417 0 0 255
-0.0299103 0.194846 7.66254 0 0 255
-0.0327556 0.194877 5.20536 0 0 255
-0.0336362 0.195072 3.32027 0 0 255
-0.0474961 0.192624 7.0943 0 0 255
-0.0280035 0.19585 3.10021 0 0 255
-0.0422472 0.193457 6.23375 0 0 255
-0.0367355 0.194377 5.0588 0 0 255
-0.0338163 0.194613 5.95797 0 0 255
-0.0277455 0.195138 7.61837 0 0 255
-0.0135696 0.197978 1.719 0 0 255
-0.00606632 0.198345 5.47783 0 0 255
-0.0254472 0.196008 4.17665 0 0 255
-0.0218507 0.196707 2.81497 0 0 255
-0.0171233 0.196782 6.12751 0 0 255
-0.0285863 0.195341 5.71979 0 0 255
-0.0350716 0.194779 3.95076 0 0 255
-0.028351 0.195984 2.00518 0 0 255
-0.0231515 0.196434 3.42799 0 0 255
-0.0197859 0.196176 7.67803 0 0 255
-0.0124454 0.197736 4.07884 0 0 255
-0.00555787 0.198319 6.04086 0 0 255
-0.00649475 0.198216 5.91728 0 0 255
-0.00895846 0.198023 5.12233 0 0 255
-0.0212127 0.197024 1.3979 0 0 255
-0.045737 0.192822 7.30195 0 0 255
-0.0286297 0.195903 2.27751 0 0 255
-0.0242115 0.195873 5.98294 0 0 255
-0.0291212 0.194945 7.68904 0 0 255
-0.0396079 0.194008 5.00443 0 0 255
-0.0359623 0.194643 4.06464 0 0 255
-0.0127693 0.197255 6.73948 0 0 255
-0.0136421 0.196947 7.90946 0 0 255
-0.0104294 0.197636 6.29469 0 0 255
-0.00896685 0.197822 6.33797 0 0 255
-0.0244719 0.196436 2.36287 0 0 255
-0.00607467 0.198147 6.67326 0 0 255
-0.0167341 0.197925 -0.486507 0 0 255
-0.0147462 0.19712 5.98035 0 0 255
-0.0171682 0.196925 5.22824 0 0 255
-0.0429761 0.19322 7.09066 0 0 255
-0.0146305 0.196824 7.86621 0 0 255
-0.0323959 0.195204 3.50796 0 0 255
-0.0395073 0.193853 6.01984 0 0 255
-0.0221148 0.19674 2.39879 0 0 255
-0.0269704 0.195491 6.09657 0 0 255
-0.0186764 0.196448 6.91563 0 0 255
-0.0155258 0.197372 3.82647 0 0 255
-0.0177368 0.196525 7.19792 0 0 255
-0.0422455 0.193216 7.69532 0 0 255
-0.0130564 0.19785 2.90322 0 0 255
-0.022105 0.196656 2.91903 0 0 255
-0.0114477 0.197275 7.66945 0 0 255
-0.0132508 0.197859 2.69425 0 0 255
-0.016646 0.197785 0.431628 0 0 255
-0.0387987 0.194234 4.27917 0 0 255
-0.0200217 0.197264 0.893709 0 0 255
-0.00529872 0.19817 7.15116 0 0 255
-0.0397013 0.193723 6.6527 0 0 255
-0.0227991 0.19654 3.07053 0 0 255
-0.020509 0.19715 1.20001 0 0 255
-0.00284122 0.198422 7.58693 0 0 255
-0.0401705 0.193701 6.41182 0 0 255
-0.0295579 0.195403 4.56444 0 0 255
-0.0229356 0.19615 5.32089 0 0 255
-0.0353873 0.194437 5.77159 0 0 255
-0.0261587 0.195904 4.23952 0 0 255
-0.023992 0.196401 2.95984 0 0 255
-0.0364678 0.194667 3.51433 0 0 255
-0.010034 0.198177 3.3294 0 0 255
-0.00522313 0.198257 6.68755 0 0 255
-0.0235024 0.196654 1.81337 0 0 255
-0.0429544 0.193291 6.67749 0 0 255
-0.00792622 0.197737 7.67803 0 0 255
-0.0358791 0.194034 7.82176 0 0 255
-0.0258375 0.196496 0.909111 0 0 255
-0.0181996 0.196755 5.4344 0 0 255
-0.0260149 0.195437 7.18628 0 0 255
-0.0159089 0.197967 -0.081129 0 0 255
-0.00229798 0.198569 7.12986 0 0 255
-0.0104886 0.198234 2.6213 0 0 255
-0.00966923 0.198038 4.46614 0 0 255
-0.0169189 0.197613 1.25478 0 0 255
-0.0112166 0.197992 3.50855 0 0 255
-0.00997505 0.197759 5.91056 0 0 255
-0.014647 0.197062 6.41149 0 0 255
-0.0208654 0.196614 4.1629 0 0 255
-0.0232358 0.196639 2.11905 0 0 255
-0.0116593 0.197959 3.35364 0 0 255
-0.0228118 0.196039 6.09456 0 0 255
-0.00637154 0.198178 6.24646 0 0 255
-0.0265081 0.196374 1.11173 0 0 255
-0.00643408 0.197969 7.46758 0 0 255
-0.018728 0.197135 2.71065 0 0 255
-0.0208371 0.197284 0.122238 0 0 255
-0.0167074 0.1967 6.96052 0 0 255
-0.0208388 0.19734 -0.217211 0 0 255
-0.038619 0.193855 6.71825 0 0 255
-0.0422116 0.193492 6.05402 0 0 255
-0.0270084 0.19541 6.56129 0 0 255
-0.00632261 0.198369 5.12909 0 0 255
-0.0129359 0.197181 7.05598 0 0 255
-0.0237643 0.196587 2.01551 0 0 255
-0.0252811 0.196165 3.35931 0 0 255
-0.0411939 0.19334 7.78482 0 0 255
-0.0255988 0.195722 5.792 0 0 255
-0.00477304 0.198474 5.72799 0 0 255
-0.0486567 0.192361 7.76346 0 0 255
-0.0470334 0.19261 7.54913 0 0 255
-0.0259347 0.195592 6.3108 0 0 255
-0.0198359 0.196562 5.30169 0 0 255
-0.0214835 0.197339 -0.724177 0 0 255
-0.0416431 0.193279 7.79573 0 0 255
-0.0106413 0.197443 7.29709 0 0 255
-0.0165458 0.196651 7.38407 0 0 255
-0.0186286 0.196887 4.29222 0 0 255
-0.0193001 0.19759 -0.505919 0 0 255
-0.0238078 0.195751 7.04769 0 0 255
-0.0285553 0.195136 6.98542 0 0 255
-0.0282381 0.195946 2.32579 0 0 255
-0.0282335 0.195774 3.37602 0 0 255
-0.018205 0.197499 0.919739 0 0 255
-0.025175 0.195613 6.78871 0 0 255
-0.0248018 0.196283 3.02764 0 0 255
-0.0373814 0.194146 5.9416 0 0 255
-0.0211752 0.197372 -0.681741 0 0 255
-0.0174569 0.196896 5.17098 0 0 255
-0.019936 0.196463 5.81887 0 0 255
-0.0176718 0.197194 3.19537 0 0 255
-0.0192069 0.197755 -1.4288 0 0 255
-0.00607496 0.198069 7.14301 0 0 255
-0.00885865 0.198154 4.41062 0 0 255
-0.0234994 0.196958 -0.0273501 0 0 255
-0.0218758 0.197146 0.128643 0 0 255
-0.0298539 0.195546 3.46186 0 0 255
-0.0220128 0.19707 0.480516 0 0 255
-0.0165083 0.19744 2.63559 0 0 255
-0.00696062 0.198063 6.47542 0 0 255
-0.0439415 0.193175 6.59601 0 0 255
-0.0256543 0.195809 5.22244 0 0 255
-0.0249105 0.196322 2.70724 0 0 255
-0.0175362 0.196967 4.6781 0 0 255
-0.012961 0.197925 2.52077 0 0 255
-0.0258755 0.196138 3.0494 0 0 255
-0.0205358 0.19644 5.48241 0 0 255
-0.0171947 0.196797 5.98291 0 0 255
-0.0106131 0.197598 6.38013 0 0 255
-0.0366013 0.194532 4.22564 0 0 255
-0.0133067 0.197947 2.11643 0 0 255
-0.0157784 0.197598 2.25708 0 0 255
-0.013075 0.19764 4.16006 0 0 255
-0.0352833 0.194182 7.39754 0 0 255
-0.0363401 0.194632 3.83017 0 0 255
-0.0361194 0.194085 7.31664 0 0 255
-0.0261809 0.19635 1.51867 0 0 255
-0.00782815 0.198058 5.81073 0 0 255
-0.0182167 0.196594 6.39503 0 0 255
-0.030091 0.195048 6.29418 0 0 255
-0.026779 0.196148 2.26826 0 0 255
-0.026048 0.196413 1.24771 0 0 255
-0.0178626 0.197188 3.07812 0 0 255
-0.0227654 0.196258 4.80563 0 0 255
-0.021408 0.197267 -0.225582 0 0 255
-0.0163968 0.197772 0.709171 0 0 255
-0.0211653 0.197211 0.304091 0 0 255
-0.0454404 0.192879 7.19088 0 0 255
-0.0196194 0.19766 -1.18328 0 0 255
-0.0315861 0.195414 2.88414 0 0 255
-0.00203897 0.198589 7.21418 0 0 255
-0.0343671 0.194739 4.75103 0 0 255
-0.0353213 0.194557 5.09351 0 0 255
-0.0241446 0.195785 6.57303 0 0 255
-0.0430239 0.193411 5.89216 0 0 255
-0.017385 0.197675 0.509202 0 0 255
-0.021015 0.196886 2.39722 0 0 255
-0.0464865 0.192771 7.01115 0 0 255
-0.0158903 0.197591 2.21211 0 0 255
-0.0311064 0.195562 2.36405 0 0 255
-0.0323645 0.195069 4.35066 0 0 255
-0.00765878 0.198117 5.59207 0 0 255
-0.0126535 0.197723 3.99183 0 0 255
-0.0393643 0.194118 4.52849 0 0 255
-0.0269897 0.19533 7.05919 0 0 255
-0.0350954 0.194361 6.46597 0 0 255
-0.0379897 0.19389 7.01043 0 0 255
-0.0258033 0.196449 1.22178 0 0 255
-0.0218463 0.195916 7.61351 0 0 255
-0.0195716 0.196359 6.73912 0 0 255
-0.0253544 0.195678 6.25258 0 0 255
-0.0140358 0.197971 1.38806 0 0 255
-0.0158995 0.19767 1.72548 0 0 255
-0.0228325 0.197101 -0.361009 0 0 255
-0.019976 0.196928 2.96668 0 0 255
-0.0333789 0.194851 4.86593 0 0 255
-0.00899402 0.197671 7.22876 0 0 255
-0.0224075 0.196468 3.81953 0 0 255
-0.0215441 0.196855 2.16122 0 0 255
-0.0230061 0.196882 0.832001 0 0 255
-0.0115902 0.197943 3.50584 0 0 255
-0.0201426 0.196313 6.56657 0 0 255
-0.0339867 0.194881 4.19432 0 0 255
-0.0287458 0.195223 6.306 0 0 255
-0.0297172 0.194831 7.905 0 0 255
-0.0220489 0.196884 1.57851 0 0 255
-0.0162838 0.196951 5.77455 0 0 255
-0.0109536 0.198102 3.0502 0 0 255
-0.0252051 0.195952 4.71237 0 0 255
-0.010344 0.197567 6.78149 0 0 255
-0.0233219 0.196797 1.09428 0 0 255
-0.0245197 0.196397 2.55886 0 0 255
-0.0383611 0.193961 6.28475 0 0 255
-0.00682101 0.198337 4.92531 0 0 255
-0.00804747 0.198335 3.95677 0 0 255
-0.039503 0.193678 7.08493 0 0 255
-0.0443837 0.193095 6.72305 0 0 255
-0.0467397 0.192828 6.46585 0 0 255
-0.032545 0.195112 3.94498 0 0 255
-0.0234402 0.196082 5.33435 0 0 255
-0.0116136 0.19782 4.23593 0 0 255
-0.01852 0.197869 -1.5705 0 0 255
-0.0205856 0.197174 0.992559 0 0 255
-0.0103578 0.198064 3.75704 0 0 255
-0.0298969 0.195035 6.52554 0 0 255
-0.0181997 0.196509 6.92351 0 0 255
-0.0400774 0.19362 6.9785 0 0 255
-0.0159305 0.19724 4.3046 0 0 255
-0.0347137 0.194373 6.6927 0 0 255
-0.0150276 0.196827 7.52982 0 0 255
-0.0156866 0.196784 7.26608 0 0 255
-0.0422426 0.193588 5.4484 0 0 255
-0.0121198 0.19793 3.16517 0 0 255
-0.0312914 0.195327 3.64651 0 0 255
-0.00923871 0.197764 6.47167 0 0 255
-0.0253106 0.196343 2.25695 0 0 255
-0.0196167 0.196996 2.84587 0 0 255
-0.0467723 0.192794 6.64601 0 0 255
-0.0271508 0.195668 4.87897 0 0 255
-0.036774 0.194597 3.69567 0 0 255
-0.0246667 0.196285 3.12407 0 0 255
-0.0494472 0.192326 7.34817 0 0 255
-0.0286997 0.195823 2.70517 0 0 255
-0.029048 0.195774 2.72217 0 0 255
-0.0267382 0.196407 0.73139 0 0 255
-0.00840248 0.1983 3.88821 0 0 255
-0.028897 0.195131 6.74083 0 0 255
-0.00282837 0.198481 7.24152 0 0 255
-0.0322468 0.195157 3.91302 0 0 255
-0.0252544 0.196509 1.29377 0 0 255
-0.0232229 0.196955 0.213426 0 0 255
-0.0069416 0.198085 6.3577 0 0 255
-0.0425356 0.193218 7.45219 0 0 255
-0.016078 0.197466 2.81681 0 0 255
-0.0292904 0.195192 6.05644 0 0 255
-0.0220342 0.196796 2.12585 0 0 255
-0.031147 0.19558 2.2276 0 0 255
-0.020478 0.196293 6.41547 0 0 255
-0.0460196 0.192841 6.95641 0 0 255
-0.014805 0.196923 7.12265 0 0 255
-0.0400652 0.193907 5.24818 0 0 255
-0.0126515 0.197752 3.81738 0 0 255
-0.0345388 0.194371 6.84488 0 0 255
-0.0231208 0.196974 0.18183 0 0 255
-0.0177334 0.197721 -0.0493696 0 0 255
-0.0207524 0.19715 1.00629 0 0 255
-0.0276109 0.195763 3.93632 0 0 255
-0.0436994 0.193187 6.71062 0 0 255
-0.026654 0.195761 4.71317 0 0 255
-0.0286514 0.194971 7.91105 0 0 255
-0.0202171 0.196945 2.67185 0 0 255
-0.00720002 0.198311 4.78332 0 0 255
-0.0266379 0.195777 4.62672 0 0 255
-0.0305619 0.195428 3.61654 0 0 255
-0.0337005 0.194517 6.63371 0 0 255
-0.0261144 0.196429 1.09393 0 0 255
-0.0424465 0.193162 7.8651 0 0 255
-0.0341711 0.194315 7.48019 0 0 255
-0.0436839 0.193232 6.4556 0 0 255
-0.0110247 0.19803 3.43455 0 0 255
-0.0177461 0.197621 0.545167 0 0 255
-0.0376781 0.194202 5.36576 0 0 255
-0.011539 0.19784 4.17068 0 0 255
-0.0168641 0.197329 3.02078 0 0 255
-0.0109339 0.197552 6.4001 0 0 255
-0.024502 0.196649 1.04827 0 0 255
-0.0209059 0.196219 6.52682 0 0 255
-0.0182738 0.197589 0.317949 0 0 255
-0.00432148 0.19828 7.2674 0 0 255
-0.0303184 0.194889 7.07561 0 0 255
-0.0177442 0.197119 3.59082 0 0 255
-0.0208033 0.196705 3.66218 0 0 255
-0.0269663 0.195369 6.83869 0 0 255
-0.0230484 0.196251 4.62102 0 0 255
-0.0395644 0.194 5.08687 0 0 255
-0.0123469 0.197366 6.40293 0 0 255
-0.0339277 0.194926 3.96951 0 0 255
-0.0241285 0.196538 2.02176 0 0 255
-0.00601758 0.198333 5.58989 0 0 255
-0.026649 0.19556 5.93795 0 0 255
-0.0364959 0.194337 5.49427 0 0 255
-0.0333671 0.194608 6.34568 0 0 255
-0.0216718 0.197202 -0.0455782 0 0 255
-0.0306097 0.194742 7.73412 0 0 255
-0.0210988 0.196483 4.77082 0 0 255
-0.0387866 0.194159 4.7411 0 0 255
-0.0301585 0.195733 2.0845 0 0 255
-0.0236724 0.195893 6.2904 0 0 255
-0.0179505 0.197885 -1.21528 0 0 255
-0.0421888 0.193348 6.94075 0 0 255
-0.0114975 0.197239 7.85137 0 0 255
-0.0156595 0.197092 5.42218 0 0 255
-0.0215376 0.197148 0.389609 0 0 255
-0.0363412 0.194005 7.62911 0 0 255
-0.0146326 0.197881 1.45429 0 0 255
-0.0116748 0.198024 2.95162 0 0 255
-0.016958 0.197546 1.63396 0 0 255
-0.0279385 0.195494 5.30752 0 0 255
-0.0207226 0.196338 5.95043 0 0 255
-0.0206686 0.196681 3.916 0 0 255
-0.0272256 0.195635 5.02255 0 0 255
-0.0468565 0.192698 7.15968 0 0 255
-0.0359446 0.19409 7.42932 0 0 255
-0.0376013 0.19423 5.25606 0 0 255
-0.00537038 0.198385 5.79427 0 0 255
-0.0185195 0.197808 -1.20275 0 0 255
-0.0100939 0.197505 7.35512 0 0 255
-0.0437581 0.193007 7.75959 0 0 255
-0.0123677 0.197984 2.64081 0 0 255
-0.029313 0.195509 4.12094 0 0 255
-0.0131614 0.198066 1.50694 0 0 255
-0.0220354 0.196335 4.91968 0 0 255
-0.0154204 0.197401 3.74009 0 0 255
-0.0188324 0.197792 -1.35742 0 0 255
-0.0317775 0.194813 6.37247 0 0 255
-0.0390989 0.193893 6.10231 0 0 255
-0.0177821 0.197707 -0.0037423 0 0 255
-0.0309198 0.195488 2.96549 0 0 255
-0.0438746 0.193309 5.83359 0 0 255
-0.0158409 0.197838 0.753786 0 0 255
-0.0285306 0.195873 2.53728 0 0 255
-0.0352718 0.194733 4.06624 0 0 255
-0.0267016 0.196338 1.18007 0 0 255
-0.016054 0.197351 3.53497 0 0 255
-0.0143363 0.19706 6.67162 0 0 255
-0.0327313 0.194508 7.45905 0 0 255
-0.0113699 0.197341 7.33259 0 0 255
-0.0258003 0.196016 3.85174 0 0 255
-0.0468439 0.192707 7.11407 0 0 255
-0.0349232 0.19469 4.60635 0 0 255
-0.00553126 0.198208 6.73937 0 0 255
-0.0224513 0.196182 5.51295 0 0 255
-0.0269704 0.195895 3.6464 0 0 255
-0.0236988 0.196001 5.61671 0 0 255
-0.0121793 0.19774 4.27031 0 0 255
-0.0386363 0.194283 4.11122 0 0 255
-0.0193512 0.197195 1.85109 0 0 255
-0.0276646 0.195603 4.86411 0 0 255
-0.0308348 0.194713 7.73002 0 0 255
-0.0332261 0.194714 5.81273 0 0 255
-0.0371274 0.193893 7.67733 0 0 255
-0.00292279 0.198361 7.89311 0 0 255
-0.0354884 0.194804 3.46651 0 0 255
-0.0205885 0.197489 -0.917423 0 0 255
-0.0331445 0.195091 3.59695 0 0 255
-0.0252765 0.19608 3.88083 0 0 255
-0.0203792 0.196931 2.63033 0 0 255
-0.0216118 0.196439 4.62971 0 0 255
-0.033539 0.194533 6.66412 0 0 255
-0.0410903 0.193364 7.72126 0 0 255
-0.00505285 0.198249 6.87039 0 0 255
-0.00397774 0.19831 7.35687 0 0 255
-0.0105581 0.197428 7.45175 0 0 255
-0.020366 0.197247 0.725133 0 0 255
-0.0197483 0.197358 0.54728 0 0 255
-0.0225886 0.196656 2.53054 0 0 255
-0.0174994 0.197557 1.13048 0 0 255
-0.0198891 0.196139 7.82282 0 0 255
-0.0163205 0.196843 6.40314 0 0 255
-0.0266904 0.195535 6.05182 0 0 255
-0.00967647 0.197521 7.59629 0 0 255
-0.0237956 0.196527 2.35038 0 0 255
-0.01283 0.197794 3.42002 0 0 255
-0.00939282 0.19778 6.25241 0 0 255
-0.0128681 0.198083 1.64089 0 0 255
-0.00273921 0.198393 7.84193 0 0 255
-0.0167694 0.196777 6.44293 0 0 255
-0.0173372 0.19704 4.39851 0 0 255
-0.0269278 0.196271 1.40431 0 0 255
-0.0177301 0.197259 2.75346 0 0 255
-0.0142976 0.197907 1.5686 0 0 255
-0.017621 0.197793 -0.394683 0 0 255
-0.0293758 0.195839 2.07127 0 0 255
-0.0108781 0.197762 5.17196 0 0 255
-0.0287402 0.195049 7.36746 0 0 255
-0.0132289 0.197625 4.12732 0 0 255
-0.0144649 0.197858 1.73133 0 0 255
-0.0190868 0.196336 7.26549 0 0 255
-0.0186163 0.197633 -0.222084 0 0 255
-0.0260556 0.196265 2.13596 0 0 255
-0.0300975 0.195258 5.01298 0 0 255
-0.0179562 0.197142 3.2827 0 0 255
-0.0184721 0.19634 7.73298 0 0 255
-0.0332549 0.194912 4.59383 0 0 255
-0.028651 0.19521 6.46233 0 0 255
-0.0123192 0.197244 7.16528 0 0 255
-0.0339956 0.195108 2.81171 0 0 255
-0.0149694 0.197049 6.22793 0 0 255
-0.00998781 0.197885 5.14 0 0 255
-0.0143406 0.196912 7.56275 0 0 255
-0.0235438 0.196776 1.0435 0 0 255
-0.0166831 0.196901 5.75934 0 0 255
-0.0335034 0.194453 7.17748 0 0 255
-0.0161989 0.197469 2.70329 0 0 255
-0.021144 0.197 1.60144 0 0 255
-0.0394785 0.194037 4.93215 0 0 255
-0.0273689 0.195681 4.6276 0 0 255
-0.0332676 0.194965 4.26361 0 0 255
-0.0360375 0.194696 3.68027 0 0 255
-0.0239785 0.196222 4.05342 0 0 255
-0.0251345 0.196346 2.38279 0 0 255
-0.0206142 0.196304 6.24289 0 0 255
-0.0263643 0.195918 3.99275 0 0 255
-0.0301667 0.195749 1.98027 0 0 255
-0.0242342 0.195643 7.35743 0 0 255
-0.0273328 0.196182 1.62026 0 0 255
-0.0206466 0.196749 3.51766 0 0 255
-0.0223726 0.196115 5.98645 0 0 255
-0.0160165 0.196847 6.6173 0 0 255
-0.0216802 0.196896 1.80018 0 0 255
-0.0328128 0.194837 5.4007 0 0 255
-0.0075565 0.198239 4.93417 0 0 255
-0.0182257 0.196625 6.20202 0 0 255
-0.0314784 0.195286 3.74317 0 0 255
-0.0191932 0.197571 -0.304791 0 0 255
-0.0333519 0.194541 6.76334 0 0 255
-0.012558 0.197716 4.11083 0 0 255
-0.0218837 0.196171 6.03565 0 0 255
-0.00629842 0.198094 6.818 0 0 255
-0.0114396 0.197355 7.19499 0 0 255
-0.00752488 0.198113 5.71983 0 0 255
-0.0376408 0.194132 5.81963 0 0 255
-0.0277279 0.195105 7.83339 0 0 255
-0.032299 0.194828 5.865 0 0 255
-0.0348021 0.194491 5.91112 0 0 255
-0.0214044 0.196477 4.56459 0 0 255
-0.0336161 0.19512 3.04463 0 0 255
-0.0171087 0.196927 5.26351 0 0 255
-0.0138996 0.197004 7.35598 0 0 255
-0.0365408 0.194381 5.19056 0 0 255
-0.0347289 0.194573 5.46897 0 0 255
-0.0194509 0.197136 2.12564 0 0 255
-0.0230308 0.19602 6.0354 0 0 255
-0.0174327 0.197407 2.09537 0 0 255
-0.0395487 0.193818 6.19888 0 0 255
-0.0418857 0.193703 5.03139 0 0 255
-0.0174113 0.196759 6.03789 0 0 255
-0.0160669 0.197979 -0.283961 0 0 255
-0.0105891 0.198205 2.72194 0 0 255
-0.0400248 0.193492 7.79753 0 0 255
-0.0481303 0.192585 6.82824 0 0 255
-0.0358283 0.194205 6.82376 0 0 255
-0.0366743 0.194426 4.80952 0 0 255
-0.0225872 0.197036 0.231584 0 0 255
-0.0325594 0.19468 6.55627 0 0 255
-0.0343834 0.194758 4.62656 0 0 255
-0.0152139 0.197251 4.81093 0 0 255
-0.0271169 0.195172 7.91306 0 0 255
-0.0346062 0.194633 5.20734 0 0 255
-0.0201085 0.197198 1.22393 0 0 255
-0.018358 0.197544 0.523525 0 0 255
-0.0322401 0.194504 7.87379 0 0 255
-0.0150292 0.197707 2.19291 0 0 255
-0.0335444 0.194683 5.75004 0 0 255
-0.0282841 0.195566 4.59217 0 0 255
-0.0214752 0.197333 -0.67936 0 0 255
-0.018768 0.197681 -0.6311 0 0 255
-0.0130705 0.197847 2.90825 0 0 255
-0.0151025 0.197641 2.53681 0 0 255
-0.0204239 0.197414 -0.335176 0 0 255
