ply
format ascii 1.0
comment Created by Open3D
element vertex 1327
property double x
property double y
property double z
property uchar red
property uchar green
property uchar blue
end_header
-0.329053 0.345221 0.222252 0 0 255
-0.35966 0.353422 0.0728927 0 0 255
-0.590466 0.415268 -1.85677 0 0 255
-0.401254 0.364567 -0.252229 0 0 255
-0.396204 0.363215 -0.485758 0 0 255
-0.516917 0.39556 -1.29161 0 0 255
-0.513187 0.39456 -1.25455 0 0 255
-0.35865 0.353152 -0.0187539 0 0 255
-0.625678 0.424703 -2.16804 0 0 255
-0.329385 0.34531 0.269085 0 0 255
-0.452 0.378165 -0.573141 0 0 255
-0.377505 0.358204 -0.309939 0 0 255
-0.404032 0.365312 -0.209427 0 0 255
-0.3232 0.343653 0.256334 0 0 255
-0.367539 0.355533 0.148108 0 0 255
-0.32911 0.345237 0.22134 0 0 255
-0.358136 0.353014 -0.084398 0 0 255
-0.3641 0.354612 -0.206877 0 0 255
-0.632752 0.426598 -2.19169 0 0 255
-0.388132 0.361051 -0.0845578 0 0 255
-0.363266 0.354389 -0.0866309 0 0 255
-0.346364 0.34986 0.0346201 0 0 255
-0.406514 0.365977 -0.303942 0 0 255
-0.497615 0.390388 -1.16565 0 0 255
-0.584688 0.413719 -1.74413 0 0 255
-0.373946 0.35725 -0.1884 0 0 255
-0.44316 0.375796 -0.487268 0 0 255
-0.36434 0.354677 -0.102626 0 0 255
-0.411549 0.367326 -0.469687 0 0 255
-0.442517 0.375624 -0.572103 0 0 255
-0.362937 0.354301 -0.199534 0 0 255
-0.350155 0.350876 0.0735991 0 0 255
-0.59371 0.416137 -1.84008 0 0 255
-0.364265 0.354657 -0.0957914 0 0 255
-0.336658 0.347259 0.239528 0 0 255
-0.592133 0.415714 -1.90988 0 0 255
-0.364825 0.354806 0.268604 0 0 255
-0.621542 0.423594 -2.10727 0 0 255
-0.516824 0.395535 -1.2366 0 0 255
-0.458446 0.379893 -0.897481 0 0 255
-0.333391 0.346384 0.175636 0 0 255
-0.393744 0.362556 -0.445223 0 0 255
-0.367826 0.35561 0.126069 0 0 255
-0.405026 0.365578 -0.378826 0 0 255
-0.500173 0.391073 -1.0381 0 0 255
-0.592671 0.415858 -1.83079 0 0 255
-0.582682 0.413182 -1.73272 0 0 255
-0.491671 0.388795 -1.10875 0 0 255
-0.42693 0.371448 -0.519625 0 0 255
-0.348033 0.350307 -0.0290483 0 0 255
-0.315427 0.34157 0.178153 0 0 255
-0.391755 0.362022 -0.114519 0 0 255
-0.445306 0.376371 -0.623732 0 0 255
-0.437582 0.374302 -0.528953 0 0 255
-0.42671 0.371388 -0.329109 0 0 255
-0.462774 0.381052 -0.679607 0 0 255
-0.398392 0.363801 -0.31914 0 0 255
-0.603244 0.418692 -1.91764 0 0 255
-0.430467 0.372395 -0.489406 0 0 255
-0.360146 0.353553 -0.0187192 0 0 255
-0.388029 0.361024 -0.0167364 0 0 255
-0.372117 0.356761 -0.197998 0 0 255
-0.558251 0.406636 -1.52596 0 0 255
-0.373656 0.357172 -0.0170346 0 0 255
-0.381142 0.359178 0.044501 0 0 255
-0.308629 0.339749 0.19892 0 0 255
-0.451703 0.378085 -0.633531 0 0 255
-0.359549 0.353392 0.255365 0 0 255
-0.604785 0.419104 -2.0177 0 0 255
-0.360828 0.353735 0.136169 0 0 255
-0.499487 0.39089 -1.15919 0 0 255
-0.437035 0.374155 -0.606283 0 0 255
-0.445186 0.376339 -0.705763 0 0 255
-0.456483 0.379366 -0.686614 0 0 255
-0.462787 0.381056 -0.815677 0 0 255
-0.352941 0.351623 -0.17548 0 0 255
-0.403938 0.365287 -0.453369 0 0 255
-0.341073 0.348442 -0.0763007 0 0 255
-0.348126 0.350332 0.255346 0 0 255
-0.493033 0.38916 -0.934867 0 0 255
-0.373461 0.357121 -0.267028 0 0 255
-0.346125 0.349796 -0.0289904 0 0 255
-0.370482 0.356322 0.186919 0 0 255
-0.441488 0.375348 -0.561616 0 0 255
-0.487997 0.387811 -1.08921 0 0 255
-0.361554 0.353929 0.238691 0 0 255
-0.354821 0.352126 -0.0644227 0 0 255
-0.500828 0.391249 -1.02712 0 0 255
-0.619567 0.423066 -2.12789 0 0 255
-0.393368 0.362455 -0.375232 0 0 255
-0.337289 0.347428 0.141935 0 0 255
-0.368855 0.355886 -0.133332 0 0 255
-0.393061 0.362372 -0.155071 0 0 255
-0.369164 0.355969 -0.25582 0 0 255
-0.461127 0.380611 -0.814578 0 0 255
-0.528056 0.398545 -1.45417 0 0 255
-0.361035 0.353791 0.089818 0 0 255
-0.417916 0.369033 -0.625342 0 0 255
-0.344171 0.349272 0.00965249 0 0 255
-0.398121 0.363728 -0.373115 0 0 255
-0.5394 0.401584 -1.42359 0 0 255
-0.311729 0.340579 0.253979 0 0 255
-0.429267 0.372074 -0.540428 0 0 255
-0.299496 0.337302 0.230135 0 0 255
-0.342541 0.348835 0.28675 0 0 255
-0.418122 0.369087 -0.341433 0 0 255
-0.453507 0.378569 -0.665304 0 0 255
-0.320796 0.343009 0.153182 0 0 255
-0.414955 0.368238 -0.232365 0 0 255
-0.385119 0.360244 0.0259931 0 0 255
-0.580454 0.412585 -1.82108 0 0 255
-0.334349 0.346641 0.0138539 0 0 255
-0.388608 0.361179 -0.210125 0 0 255
-0.488372 0.387911 -0.878635 0 0 255
-0.373626 0.357164 -0.0486127 0 0 255
-0.365543 0.354999 0.0974299 0 0 255
-0.559473 0.406963 -1.52408 0 0 255
-0.521377 0.396755 -1.18744 0 0 255
-0.407139 0.366145 -0.457032 0 0 255
-0.401496 0.364632 -0.0833826 0 0 255
-0.489446 0.388199 -0.867124 0 0 255
-0.370521 0.356332 0.127103 0 0 255
-0.513213 0.394567 -1.1845 0 0 255
-0.413156 0.367757 -0.345619 0 0 255
-0.370152 0.356234 -0.257543 0 0 255
-0.361481 0.35391 -0.100979 0 0 255
-0.461971 0.380837 -0.816946 0 0 255
-0.393677 0.362538 -0.368392 0 0 255
-0.476596 0.384756 -0.894784 0 0 255
-0.354187 0.351955 0.230655 0 0 255
-0.534135 0.400174 -1.42939 0 0 255
-0.329826 0.345429 0.144226 0 0 255
-0.373965 0.357256 -0.0864772 0 0 255
-0.440987 0.375214 -0.639004 0 0 255
-0.506827 0.392857 -1.2904 0 0 255
-0.50162 0.391461 -1.10896 0 0 255
-0.316046 0.341736 0.210846 0 0 255
-0.636859 0.427699 -2.25381 0 0 255
-0.337987 0.347615 0.0545272 0 0 255
-0.497332 0.390312 -1.06201 0 0 255
-0.468985 0.382716 -0.774522 0 0 255
-0.599822 0.417775 -1.87871 0 0 255
-0.347972 0.350291 0.000912645 0 0 255
-0.372166 0.356773 -0.0581246 0 0 255
-0.503448 0.391951 -1.2066 0 0 255
-0.5198 0.396332 -1.23728 0 0 255
-0.356798 0.352655 0.266678 0 0 255
-0.500145 0.391066 -1.20833 0 0 255
-0.476746 0.384796 -0.793784 0 0 255
-0.333334 0.346368 0.2006 0 0 255
-0.390879 0.361787 -0.138835 0 0 255
-0.587589 0.414497 -1.80513 0 0 255
-0.497487 0.390353 -0.989514 0 0 255
-0.515337 0.395137 -1.25164 0 0 255
-0.445908 0.376533 -0.796558 0 0 255
-0.442913 0.37573 -0.570116 0 0 255
-0.326194 0.344455 0.217492 0 0 255
-0.568201 0.409301 -1.60372 0 0 255
-0.374016 0.357269 0.165338 0 0 255
-0.372646 0.356902 -0.285076 0 0 255
-0.383147 0.359716 -0.124442 0 0 255
-0.388626 0.361184 -0.297448 0 0 255
-0.358436 0.353094 0.264074 0 0 255
-0.326216 0.344461 0.107931 0 0 255
-0.359206 0.353301 0.0439498 0 0 255
-0.521864 0.396886 -1.39501 0 0 255
-0.396206 0.363215 -0.379551 0 0 255
-0.508468 0.393296 -1.11831 0 0 255
-0.411982 0.367442 -0.182693 0 0 255
-0.445019 0.376295 -0.72325 0 0 255
-0.492367 0.388982 -0.962469 0 0 255
-0.403287 0.365112 -0.119584 0 0 255
-0.386949 0.360734 -0.0218597 0 0 255
-0.470001 0.382988 -0.769454 0 0 255
-0.485278 0.387082 -1.092 0 0 255
-0.373222 0.357056 0.0933286 0 0 255
-0.476321 0.384682 -0.983158 0 0 255
-0.332124 0.346044 -0.0147812 0 0 255
-0.456471 0.379363 -0.877517 0 0 255
-0.466666 0.382096 -1.68838 0 0 255
-0.512277 0.394317 -1.43606 0 0 255
-0.403791 0.365248 -0.855395 0 0 255
-0.545847 0.403312 -1.83975 0 0 255
-0.295573 0.336251 0.223655 0 0 255
-0.405875 0.365807 -1.22679 0 0 255
-0.405113 0.365602 -0.579605 0 0 255
-0.366717 0.355314 -0.362945 0 0 255
-0.378219 0.358397 -1.56492 0 0 255
-0.377642 0.358242 -0.844914 0 0 255
-0.483744 0.386672 -1.80789 0 0 255
-0.597489 0.41715 -2.15041 0 0 255
-0.365769 0.35506 -0.741607 0 0 255
-0.446528 0.3767 -1.49079 0 0 255
-0.393763 0.362561 -0.588136 0 0 255
-0.428532 0.371878 -1.26121 0 0 255
-0.3272 0.344725 -0.0571579 0 0 255
-0.422952 0.370383 -1.3988 0 0 255
-0.524937 0.39771 -2.14125 0 0 255
-0.515079 0.395068 -2.0971 0 0 255
-0.410908 0.367155 -0.938064 0 0 255
-0.56868 0.40943 -2.09248 0 0 255
-0.374331 0.357355 -1.55508 0 0 255
-0.391069 0.36184 -1.33377 0 0 255
-0.388856 0.361246 -1.17605 0 0 255
-0.415171 0.368297 -0.956155 0 0 255
-0.372073 0.35675 -1.23956 0 0 255
-0.370068 0.356212 -0.702583 0 0 255
-0.414498 0.368117 -1.09487 0 0 255
-0.43465 0.373517 -1.0789 0 0 255
-0.387649 0.360923 -1.36076 0 0 255
-0.540089 0.401769 -1.96712 0 0 255
-0.397633 0.363598 -1.19935 0 0 255
-0.349037 0.350577 -1.0109 0 0 255
-0.404434 0.36542 -0.644235 0 0 255
-0.58889 0.414846 -2.2144 0 0 255
-0.407015 0.366112 -0.872813 0 0 255
-0.553307 0.405311 -1.66566 0 0 255
-0.479979 0.385663 -1.89875 0 0 255
-0.623521 0.424125 -2.2006 0 0 255
-0.342574 0.348845 -0.662702 0 0 255
-0.418414 0.369167 -1.77957 0 0 255
-0.329598 0.345368 -0.566312 0 0 255
-0.385611 0.360377 -1.49406 0 0 255
-0.361844 0.354008 -0.877311 0 0 255
-0.537864 0.401173 -1.8275 0 0 255
-0.322087 0.343355 -0.303064 0 0 255
-0.385689 0.360398 -0.885288 0 0 255
-0.392751 0.362291 -1.85615 0 0 255
-0.405286 0.365649 -1.01538 0 0 255
-0.496696 0.390142 -2.09462 0 0 255
-0.326181 0.344453 -0.457383 0 0 255
-0.562513 0.407778 -2.18071 0 0 255
-0.608451 0.420087 -2.13218 0 0 255
-0.506138 0.392672 -1.51799 0 0 255
-0.323176 0.343647 -0.286397 0 0 255
-0.379881 0.358842 -1.15298 0 0 255
-0.32411 0.343897 0.0309614 0 0 255
-0.361841 0.354008 -0.453672 0 0 255
-0.48729 0.387622 -2.05679 0 0 255
-0.47731 0.384948 -1.69365 0 0 255
-0.412775 0.367656 -1.15138 0 0 255
-0.54401 0.40282 -2.0694 0 0 255
-0.532343 0.399694 -1.5755 0 0 255
-0.461751 0.380779 -1.81691 0 0 255
-0.529929 0.399047 -1.4887 0 0 255
-0.629917 0.425839 -2.21831 0 0 255
-0.432508 0.372943 -1.41852 0 0 255
-0.590191 0.415194 -2.21351 0 0 255
-0.423825 0.370617 -1.6263 0 0 255
-0.389942 0.361537 -0.898531 0 0 255
-0.38506 0.36023 -1.63457 0 0 255
-0.354078 0.351928 -0.794582 0 0 255
-0.474361 0.384158 -1.80431 0 0 255
-0.371064 0.356479 -0.344217 0 0 255
-0.411062 0.367196 -0.835882 0 0 255
-0.557037 0.406311 -1.809 0 0 255
-0.386224 0.360542 -1.62256 0 0 255
-0.405489 0.365704 -1.67119 0 0 255
-0.480562 0.385819 -1.96382 0 0 255
-0.361903 0.354025 -1.21068 0 0 255
-0.620557 0.423331 -2.19389 0 0 255
-0.413781 0.367926 -1.85213 0 0 255
-0.514913 0.395023 -1.92399 0 0 255
-0.406669 0.366019 -0.81799 0 0 255
-0.378154 0.358379 -1.64152 0 0 255
-0.514814 0.394997 -1.39902 0 0 255
-0.609091 0.420259 -2.28433 0 0 255
-0.494659 0.389596 -1.49896 0 0 255
-0.427144 0.371506 -1.06926 0 0 255
-0.570015 0.409788 -2.19264 0 0 255
-0.412738 0.367646 -1.18562 0 0 255
-0.354832 0.352129 -0.445832 0 0 255
-0.422486 0.370258 -1.8153 0 0 255
-0.39925 0.364032 -1.53814 0 0 255
-0.508444 0.39329 -1.65135 0 0 255
-0.391783 0.362031 -1.0817 0 0 255
-0.510032 0.393716 -1.60182 0 0 255
-0.573018 0.410593 -1.93603 0 0 255
-0.433454 0.373196 -0.834037 0 0 255
-0.483288 0.38655 -2.12674 0 0 255
-0.504881 0.392335 -1.4298 0 0 255
-0.486096 0.387302 -1.59 0 0 255
-0.337654 0.347527 -0.548512 0 0 255
-0.558278 0.406643 -1.98056 0 0 255
-0.453521 0.378573 -1.19452 0 0 255
-0.422144 0.370166 -1.2831 0 0 255
-0.324213 0.343925 -0.0727729 0 0 255
-0.390337 0.361644 -1.94429 0 0 255
-0.398785 0.363907 -0.537678 0 0 255
-0.62969 0.425778 -2.2438 0 0 255
-0.363794 0.354531 -0.350319 0 0 255
-0.409119 0.366676 -1.91447 0 0 255
-0.421282 0.369935 -1.47996 0 0 255
-0.442951 0.375741 -1.1463 0 0 255
-0.488627 0.38798 -1.63595 0 0 255
-0.429311 0.372087 -1.63156 0 0 255
-0.317721 0.342185 -0.0130681 0 0 255
-0.34993 0.350816 -1.01197 0 0 255
-0.412282 0.367523 -1.43154 0 0 255
-0.402621 0.364935 -1.59773 0 0 255
-0.405664 0.36575 -0.975893 0 0 255
-0.399984 0.364228 -1.46547 0 0 255
-0.480801 0.385883 -2.05925 0 0 255
-0.461197 0.38063 -1.51115 0 0 255
-0.428151 0.371775 -1.05724 0 0 255
-0.561888 0.407611 -1.98933 0 0 255
-0.524628 0.397627 -1.46632 0 0 255
-0.410417 0.367024 -1.09402 0 0 255
-0.530983 0.399329 -1.79034 0 0 255
-0.483977 0.386734 -1.35078 0 0 255
-0.381685 0.359325 -1.17719 0 0 255
-0.368883 0.355895 -0.854303 0 0 255
-0.354775 0.352114 -0.718551 0 0 255
-0.327357 0.344767 -0.221525 0 0 255
-0.409816 0.366863 -1.39546 0 0 255
-0.532134 0.399638 -1.95029 0 0 255
-0.3293 0.345288 -0.261109 0 0 255
-0.466949 0.382171 -1.48484 0 0 255
-0.621102 0.423477 -2.19814 0 0 255
-0.526489 0.398125 -1.99199 0 0 255
-0.438763 0.374619 -1.91063 0 0 255
-0.606235 0.419493 -2.22584 0 0 255
-0.472527 0.383666 -1.4083 0 0 255
-0.416525 0.36866 -0.680194 0 0 255
-0.387363 0.360847 -1.80191 0 0 255
-0.31586 0.341687 -0.17924 0 0 255
-0.421862 0.37009 -1.51248 0 0 255
-0.376732 0.357998 -1.51136 0 0 255
-0.341836 0.348647 -0.756734 0 0 255
-0.537581 0.401097 -1.73494 0 0 255
-0.543146 0.402588 -1.72883 0 0 255
-0.470156 0.383031 -1.23683 0 0 255
-0.481443 0.386055 -1.88744 0 0 255
-0.411418 0.367292 -2.00056 0 0 255
-0.441631 0.375388 -1.74385 0 0 255
-0.32209 0.343356 -0.0919021 0 0 255
-0.524096 0.397484 -1.60413 0 0 255
-0.409272 0.366717 -1.74245 0 0 255
-0.366493 0.355254 -0.432788 0 0 255
-0.547849 0.403849 -1.6752 0 0 255
-0.415632 0.368421 -0.853338 0 0 255
-0.525356 0.397821 -1.49909 0 0 255
-0.478098 0.385159 -1.14903 0 0 255
-0.50116 0.391338 -1.76234 0 0 255
-0.562328 0.407728 -1.92114 0 0 255
-0.407383 0.366211 -1.15547 0 0 255
-0.470137 0.383026 -1.20179 0 0 255
-0.505956 0.392623 -1.35195 0 0 255
-0.533405 0.399978 -1.76915 0 0 255
-0.457102 0.379533 -1.71638 0 0 255
-0.365327 0.354941 -0.422309 0 0 255
-0.374062 0.357282 -0.465773 0 0 255
-0.352576 0.351525 -0.617281 0 0 255
-0.33175 0.345945 -0.281381 0 0 255
-0.625576 0.424676 -2.28674 0 0 255
-0.517831 0.395805 -1.43032 0 0 255
-0.385228 0.360275 -1.5755 0 0 255
-0.591126 0.415445 -2.25526 0 0 255
-0.555702 0.405953 -1.7113 0 0 255
-0.555467 0.40589 -2.03552 0 0 255
-0.32389 0.343838 -0.337983 0 0 255
-0.344218 0.349286 -0.843914 0 0 255
-0.448798 0.377308 -1.97265 0 0 255
-0.467091 0.382209 -1.2032 0 0 255
-0.405244 0.365638 -1.30398 0 0 255
-0.361686 0.353966 -0.755604 0 0 255
-0.361445 0.353901 -0.326001 0 0 255
-0.383179 0.359725 -0.931461 0 0 255
-0.466179 0.381965 -1.71364 0 0 255
-0.465744 0.381849 -1.54527 0 0 255
-0.386991 0.360747 -1.78159 0 0 255
-0.387695 0.360935 -0.896841 0 0 255
-0.450271 0.377703 -1.28008 0 0 255
-0.448756 0.377296 -1.10524 0 0 255
-0.347574 0.350185 -0.870621 0 0 255
-0.51102 0.39398 -1.81771 0 0 255
-0.496728 0.390151 -1.69277 0 0 255
-0.559898 0.407077 -1.72058 0 0 255
-0.565961 0.408702 -1.76484 0 0 255
-0.461897 0.380818 -1.56886 0 0 255
-0.537121 0.400974 -1.96358 0 0 255
-0.406477 0.365968 -1.12238 0 0 255
-0.423429 0.37051 -1.34051 0 0 255
-0.578456 0.41205 -2.17271 0 0 255
-0.458481 0.379903 -1.72459 0 0 255
-0.599592 0.417713 -2.18245 0 0 255
-0.404761 0.365509 -1.6519 0 0 255
-0.390626 0.361721 -1.57382 0 0 255
-0.425335 0.371021 -0.822556 0 0 255
-0.38473 0.360141 -1.39901 0 0 255
-0.486287 0.387353 -1.29715 0 0 255
-0.365092 0.354879 -0.731729 0 0 255
-0.372494 0.356862 -0.864705 0 0 255
-0.527899 0.398503 -1.63549 0 0 255
-0.365018 0.354859 -0.585105 0 0 255
-0.383691 0.359863 -1.3364 0 0 255
-0.384093 0.359971 -1.73283 0 0 255
-0.488974 0.388074 -2.12942 0 0 255
-0.314188 0.341239 -0.155962 0 0 255
-0.517983 0.395846 -1.7427 0 0 255
-0.621545 0.423596 -2.30812 0 0 255
-0.448086 0.377117 -1.6047 0 0 255
-0.444197 0.376075 -1.58983 0 0 255
-0.401798 0.364715 -1.93054 0 0 255
-0.392673 0.362269 -0.88724 0 0 255
-0.385901 0.360455 -1.31639 0 0 255
-0.354349 0.352 -0.63863 0 0 255
-0.353533 0.351781 -0.25941 0 0 255
-0.466331 0.382006 -1.32006 0 0 255
-0.50557 0.39252 -1.83986 0 0 255
-0.462383 0.380948 -1.19922 0 0 255
-0.354149 0.351946 -0.340026 0 0 255
-0.349534 0.35071 -0.449334 0 0 255
-0.634012 0.426936 -2.25843 0 0 255
-0.354384 0.352009 -0.765416 0 0 255
-0.327772 0.344879 -0.526819 0 0 255
-0.352679 0.351553 -0.828402 0 0 255
-0.454942 0.378954 -0.932249 0 0 255
-0.379941 0.358857 -0.605942 0 0 255
-0.460533 0.380452 -1.34555 0 0 255
-0.608054 0.419981 -2.18589 0 0 255
-0.469185 0.382771 -1.36424 0 0 255
-0.403919 0.365282 -0.854225 0 0 255
-0.599188 0.417605 -2.20736 0 0 255
-0.407786 0.366319 -1.03137 0 0 255
-0.446184 0.376607 -1.30921 0 0 255
-0.384227 0.360006 -0.71751 0 0 255
-0.320623 0.342963 -0.179704 0 0 255
-0.463608 0.381276 -1.49171 0 0 255
-0.396609 0.363324 -1.73432 0 0 255
-0.434063 0.373359 -0.952066 0 0 255
-0.373815 0.357216 -0.7897 0 0 255
-0.562367 0.407739 -2.17529 0 0 255
-0.442234 0.375549 -1.05397 0 0 255
-0.469626 0.382889 -1.29371 0 0 255
-0.422549 0.370274 -1.3219 0 0 255
-0.374222 0.357325 -1.27989 0 0 255
-0.437257 0.374215 -0.964465 0 0 255
-0.364031 0.354595 -1.05158 0 0 255
-0.446597 0.376719 -1.92501 0 0 255
-0.425371 0.371031 -1.2294 0 0 255
-0.525316 0.397811 -2.14916 0 0 255
-0.456948 0.379492 -1.26551 0 0 255
-0.351959 0.35136 -0.501155 0 0 255
-0.393893 0.362596 -1.70124 0 0 255
-0.382667 0.359588 -1.44843 0 0 255
-0.47883 0.385355 -1.94177 0 0 255
-0.377481 0.358199 -1.3042 0 0 255
-0.445363 0.376388 -1.90018 0 0 255
-0.429067 0.372021 -1.50844 0 0 255
-0.355569 0.352327 -0.789257 0 0 255
-0.576314 0.411476 -2.13021 0 0 255
-0.506345 0.392728 -2.01287 0 0 255
-0.478577 0.385287 -1.85073 0 0 255
-0.519201 0.396173 -2.0348 0 0 255
-0.366897 0.355363 -1.32581 0 0 255
-0.421742 0.370058 -0.866004 0 0 255
-0.533878 0.400105 -2.17988 0 0 255
-0.422628 0.370296 -2.03685 0 0 255
-0.345274 0.349568 -0.28267 0 0 255
-0.421191 0.36991 -0.72778 0 0 255
-0.426901 0.37144 -1.13048 0 0 255
-0.496015 0.38996 -1.88377 0 0 255
-0.438303 0.374496 -1.47938 0 0 255
-0.490221 0.388407 -1.49028 0 0 255
-0.479304 0.385482 -1.67417 0 0 255
-0.431447 0.372659 -1.33324 0 0 255
-0.473516 0.383931 -1.3926 0 0 255
-0.416683 0.368703 -1.71885 0 0 255
-0.373363 0.357095 -0.787622 0 0 255
-0.514899 0.39502 -1.75018 0 0 255
-0.412848 0.367675 -1.359 0 0 255
-0.587328 0.414427 -1.95153 0 0 255
-0.455405 0.379078 -1.42806 0 0 255
-0.497003 0.390224 -1.45923 0 0 255
-0.510287 0.393784 -1.35436 0 0 255
-0.444534 0.376166 -1.7567 0 0 255
-0.471276 0.383331 -1.21545 0 0 255
-0.64865 0.430858 -2.41265 0 0 255
-0.442014 0.37549 -1.10032 0 0 255
-0.543795 0.402762 -1.67548 0 0 255
-0.374318 0.357351 -1.17733 0 0 255
-0.495969 0.389947 -1.58067 0 0 255
-0.501268 0.391367 -1.46082 0 0 255
-0.404547 0.365451 -1.82252 0 0 255
-0.462477 0.380973 -1.23726 0 0 255
-0.550694 0.404611 -2.2359 0 0 255
-0.588719 0.4148 -2.10314 0 0 255
-0.421362 0.369956 -1.38576 0 0 255
-0.483233 0.386535 -1.1998 0 0 255
-0.567682 0.409163 -1.79533 0 0 255
-0.384864 0.360177 -1.82599 0 0 255
-0.446471 0.376685 -1.7011 0 0 255
-0.438813 0.374633 -2.00792 0 0 255
-0.393268 0.362428 -0.495985 0 0 255
-0.501777 0.391504 -2.06585 0 0 255
-0.410187 0.366962 -0.836955 0 0 255
-0.558286 0.406645 -2.08305 0 0 255
-0.422919 0.370374 -2.01117 0 0 255
-0.523135 0.397227 -1.92306 0 0 255
-0.37809 0.358362 -1.4625 0 0 255
-0.514976 0.395041 -2.16126 0 0 255
-0.428294 0.371814 -1.94645 0 0 255
-0.500387 0.391131 -1.68065 0 0 255
-0.343213 0.349016 -0.354989 0 0 255
-0.560562 0.407255 -2.05214 0 0 255
-0.418196 0.369108 -0.837664 0 0 255
-0.412507 0.367584 -1.94369 0 0 255
-0.423838 0.37062 -1.92492 0 0 255
-0.459162 0.380085 -1.47968 0 0 255
-0.485375 0.387109 -1.78168 0 0 255
-0.551929 0.404942 -1.86273 0 0 255
-0.358747 0.353179 -0.653582 0 0 255
-0.470511 0.383126 -1.10972 0 0 255
-0.60882 0.420186 -2.26836 0 0 255
-0.331503 0.345878 -0.617486 0 0 255
-0.465844 0.381876 -1.8295 0 0 255
-0.519564 0.39627 -1.97797 0 0 255
-0.354192 0.351958 -0.323975 0 0 255
-0.4175 0.368921 -0.772301 0 0 255
-0.534218 0.400196 -1.92625 0 0 255
-0.464235 0.381445 -2.07142 0 0 255
-0.338958 0.347876 -0.346734 0 0 255
-0.409534 0.366787 -0.777804 0 0 255
-0.366298 0.355202 -0.850282 0 0 255
-0.399234 0.364028 -1.67813 0 0 255
-0.394998 0.362892 -1.33267 0 0 255
-0.360484 0.353644 -0.32884 0 0 255
-0.465211 0.381706 -1.83118 0 0 255
-0.427547 0.371614 -1.36606 0 0 255
-0.40215 0.364808 -0.793824 0 0 255
-0.433718 0.373267 -0.986742 0 0 255
-0.474896 0.384301 -1.44632 0 0 255
-0.401458 0.364623 -1.01104 0 0 255
-0.489909 0.388323 -1.53407 0 0 255
-0.423086 0.370418 -1.24208 0 0 255
-0.419537 0.369467 -0.848237 0 0 255
-0.545008 0.403088 -2.22756 0 0 255
-0.418566 0.369208 -1.86445 0 0 255
-0.542026 0.402288 -1.6584 0 0 255
-0.567767 0.409186 -2.16178 0 0 255
-0.606744 0.41963 -2.31522 0 0 255
-0.401921 0.364747 -1.36331 0 0 255
-0.338682 0.347802 -0.757064 0 0 255
-0.374833 0.357489 -1.06613 0 0 255
-0.419288 0.3694 -0.763027 0 0 255
-0.47163 0.383426 -1.18714 0 0 255
-0.413962 0.367974 -1.29867 0 0 255
-0.488018 0.387817 -1.22382 0 0 255
-0.326096 0.34443 -0.420594 0 0 255
-0.469905 0.382963 -1.10105 0 0 255
-0.494657 0.389596 -2.0967 0 0 255
-0.428778 0.371943 -0.87995 0 0 255
-0.622396 0.423823 -2.27757 0 0 255
-0.365726 0.355049 -1.37133 0 0 255
-0.449029 0.37737 -1.28757 0 0 255
-0.54615 0.403393 -1.85703 0 0 255
-0.417541 0.368933 -1.65283 0 0 255
-0.346908 0.350006 -0.401021 0 0 255
-0.38922 0.361344 -0.882935 0 0 255
-0.327591 0.34483 -0.486954 0 0 255
-0.544206 0.402872 -1.87574 0 0 255
-0.409537 0.366788 -1.71388 0 0 255
-0.647678 0.430598 -2.35203 0 0 255
-0.5989 0.417528 -1.98191 0 0 255
-0.608825 0.420187 -2.14495 0 0 255
-0.543152 0.40259 -2.03166 0 0 255
-0.32507 0.344155 -0.399056 0 0 255
-0.557872 0.406534 -1.77275 0 0 255
-0.545335 0.403175 -1.92529 0 0 255
-0.408107 0.366404 -0.60146 0 0 255
-0.422418 0.370239 -1.54991 0 0 255
-0.478367 0.385231 -1.33662 0 0 255
-0.381463 0.359266 -1.72609 0 0 255
-0.389289 0.361362 -0.928614 0 0 255
-0.411128 0.367214 -0.707697 0 0 255
-0.343268 0.349031 -0.56621 0 0 255
-0.410979 0.367175 -1.91611 0 0 255
-0.298311 0.336984 0.10445 0 0 255
-0.293392 0.335666 0.253263 0 0 255
-0.457126 0.37954 -1.71052 0 0 255
-0.383219 0.359736 -1.48285 0 0 255
-0.413191 0.367767 -1.38319 0 0 255
-0.36523 0.354916 -0.956201 0 0 255
-0.39243 0.362205 -1.8746 0 0 255
-0.431109 0.372569 -1.72473 0 0 255
-0.385429 0.360329 -1.57774 0 0 255
-0.408208 0.366432 -1.45192 0 0 255
-0.331948 0.345998 -0.229968 0 0 255
-0.599811 0.417772 -2.12554 0 0 255
-0.56465 0.408351 -2.13648 0 0 255
-0.386002 0.360481 -0.69588 0 0 255
-0.535167 0.40045 -1.7314 0 0 255
-0.434416 0.373454 -1.00941 0 0 255
-0.439801 0.374898 -1.94173 0 0 255
-0.441368 0.375317 -1.37838 0 0 255
-0.385355 0.360309 -1.607 0 0 255
-0.477956 0.385121 -1.57824 0 0 255
-0.516047 0.395327 -2.04483 0 0 255
-0.509966 0.393698 -1.55288 0 0 255
-0.482701 0.386392 -1.36242 0 0 255
-0.401208 0.364556 -0.92621 0 0 255
-0.632777 0.426605 -2.33747 0 0 255
-0.416057 0.368535 -1.1602 0 0 255
-0.360065 0.353531 -0.270839 0 0 255
-0.382841 0.359635 -0.915372 0 0 255
-0.331023 0.34575 -0.237879 0 0 255
-0.441884 0.375455 -1.13517 0 0 255
-0.649664 0.43113 -2.36046 0 0 255
-0.453871 0.378667 -1.81161 0 0 255
-0.483206 0.386528 -1.76776 0 0 255
-0.379936 0.358857 -1.38585 0 0 255
-0.414432 0.368099 -0.952849 0 0 255
-0.60062 0.417989 -2.16837 0 0 255
-0.526996 0.398261 -1.66654 0 0 255
-0.512296 0.394323 -2.02661 0 0 255
-0.460325 0.380396 -1.09232 0 0 255
-0.605921 0.419409 -2.20055 0 0 255
-0.634437 0.42705 -2.29327 0 0 255
-0.540489 0.401876 -1.60427 0 0 255
-0.422918 0.370373 -0.960082 0 0 255
-0.549234 0.40422 -1.81156 0 0 255
-0.390768 0.361759 -1.14609 0 0 255
-0.338068 0.347637 -0.342659 0 0 255
-0.443771 0.375961 -1.49072 0 0 255
-0.4448 0.376237 -0.969014 0 0 255
-0.432582 0.372963 -1.04645 0 0 255
-0.597813 0.417237 -2.26468 0 0 255
-0.321632 0.343233 -0.0137663 0 0 255
-0.478009 0.385135 -1.52382 0 0 255
-0.349664 0.350745 -0.738243 0 0 255
-0.575792 0.411336 -1.96945 0 0 255
-0.468824 0.382674 -1.84254 0 0 255
-0.394847 0.362852 -0.741254 0 0 255
-0.398668 0.363876 -1.44234 0 0 255
-0.515048 0.39506 -1.90299 0 0 255
-0.577327 0.411748 -2.18065 0 0 255
-0.431826 0.372761 -1.89631 0 0 255
-0.511372 0.394075 -2.10409 0 0 255
-0.425464 0.371056 -1.71328 0 0 255
-0.551053 0.404707 -1.8135 0 0 255
-0.616792 0.422322 -2.14351 0 0 255
-0.646165 0.430193 -2.40952 0 0 255
-0.368585 0.355814 -0.611836 0 0 255
-0.342559 0.348841 -0.559235 0 0 255
-0.397567 0.363581 -1.91687 0 0 255
-0.496429 0.390071 -1.49334 0 0 255
-0.403093 0.365061 -1.42617 0 0 255
-0.357187 0.352761 -1.07465 0 0 255
-0.361358 0.353878 -1.27846 0 0 255
-0.333609 0.346443 -0.0505137 0 0 255
-0.410626 0.36708 -1.13091 0 0 255
-0.437048 0.37416 -1.76226 0 0 255
-0.389686 0.361469 -0.927088 0 0 255
-0.423963 0.370654 -1.90061 0 0 255
-0.325962 0.344394 -0.353651 0 0 255
-0.382614 0.359574 -1.56189 0 0 255
-0.547256 0.40369 -1.85777 0 0 255
-0.369915 0.356171 -0.845946 0 0 255
-0.502192 0.391615 -2.04062 0 0 255
-0.41815 0.369096 -1.31712 0 0 255
-0.380769 0.35908 -1.74668 0 0 255
-0.36273 0.354246 -1.02437 0 0 255
-0.372837 0.356954 -1.47545 0 0 255
-0.501919 0.391542 -1.84436 0 0 255
-0.375212 0.35759 -0.494466 0 0 255
-0.355299 0.352255 -0.613507 0 0 255
-0.376621 0.357968 -0.708436 0 0 255
-0.382964 0.359667 -0.717563 0 0 255
-0.442646 0.37566 -1.94437 0 0 255
-0.389558 0.361435 -1.53618 0 0 255
-0.570809 0.410001 -1.91619 0 0 255
-0.509365 0.393537 -2.04777 0 0 255
-0.435957 0.373867 -1.54266 0 0 255
-0.420304 0.369673 -1.64724 0 0 255
-0.358703 0.353167 -0.226528 0 0 255
-0.377176 0.358117 -1.29185 0 0 255
-0.635823 0.427421 -2.36581 0 0 255
-0.534243 0.400203 -2.19889 0 0 255
-0.355376 0.352276 -0.898333 0 0 255
-0.484067 0.386759 -2.08448 0 0 255
-0.382538 0.359553 -0.757636 0 0 255
-0.405715 0.365764 -1.55058 0 0 255
-0.455568 0.379122 -1.37632 0 0 255
-0.372691 0.356915 -0.690529 0 0 255
-0.419399 0.36943 -0.856207 0 0 255
-0.381078 0.359162 -0.842985 0 0 255
-0.480497 0.385801 -1.12994 0 0 255
-0.445157 0.376332 -0.987595 0 0 255
-0.408323 0.366463 -1.97222 0 0 255
-0.573998 0.410855 -2.03411 0 0 255
-0.393831 0.362579 -0.962693 0 0 255
-0.440573 0.375104 -1.06644 0 0 255
-0.372683 0.356913 -0.915432 0 0 255
-0.437849 0.374374 -1.11569 0 0 255
-0.399601 0.364126 -1.11799 0 0 255
-0.404967 0.365564 -1.89406 0 0 255
-0.458029 0.379782 -1.97978 0 0 255
-0.366332 0.355211 -1.06795 0 0 255
-0.436241 0.373943 -1.49163 0 0 255
-0.527667 0.398441 -2.19252 0 0 255
-0.3612 0.353836 -0.678614 0 0 255
-0.556303 0.406114 -2.11279 0 0 255
-0.312691 0.340838 0.0713145 0 0 255
-0.416085 0.368543 -1.82668 0 0 255
-0.617334 0.422467 -2.12688 0 0 255
-0.378963 0.358596 -1.20278 0 0 255
-0.498894 0.390731 -2.07101 0 0 255
-0.540087 0.401769 -1.69707 0 0 255
-0.482125 0.386238 -1.38525 0 0 255
-0.533369 0.399969 -1.91032 0 0 255
-0.601047 0.418103 -2.00967 0 0 255
-0.461718 0.38077 -1.08619 0 0 255
-0.477353 0.384959 -1.52072 0 0 255
-0.427708 0.371657 -1.20657 0 0 255
-0.440653 0.375125 -0.941506 0 0 255
-0.485942 0.38726 -1.30924 0 0 255
-0.399374 0.364065 -1.99553 0 0 255
-0.316832 0.341947 -0.0484155 0 0 255
-0.379699 0.358793 -0.727405 0 0 255
-0.515746 0.395247 -1.97672 0 0 255
-0.369749 0.356127 -1.26278 0 0 255
-0.394982 0.362889 -1.95678 0 0 255
-0.440154 0.374992 -2.0206 0 0 255
-0.489109 0.388109 -1.82063 0 0 255
-0.625169 0.424567 -2.21432 0 0 255
-0.491348 0.38871 -1.89496 0 0 255
-0.425638 0.371102 -1.166 0 0 255
-0.527426 0.398376 -1.66333 0 0 255
-0.475068 0.384347 -1.83086 0 0 255
-0.402762 0.364972 -0.735624 0 0 255
-0.386558 0.36063 -0.88918 0 0 255
-0.594405 0.416323 -2.0375 0 0 255
-0.507332 0.392992 -1.31237 0 0 255
-0.334546 0.346694 -0.204391 0 0 255
-0.565752 0.408646 -1.97864 0 0 255
-0.443348 0.375848 -1.87932 0 0 255
-0.501405 0.391404 -1.53277 0 0 255
-0.417478 0.368915 -0.748063 0 0 255
-0.421433 0.369976 -1.83147 0 0 255
-0.543456 0.402672 -2.14455 0 0 255
-0.384386 0.360049 -1.02542 0 0 255
-0.450588 0.377788 -2.02853 0 0 255
-0.510242 0.393772 -2.11042 0 0 255
-0.451394 0.378004 -1.6169 0 0 255
-0.328088 0.344963 -0.521913 0 0 255
-0.303749 0.338441 0.103629 0 0 255
-0.576952 0.411647 -2.17193 0 0 255
-0.354141 0.351944 -0.702124 0 0 255
-0.495561 0.389838 -1.92346 0 0 255
-0.363073 0.354338 -1.26022 0 0 255
-0.356415 0.352554 -0.261936 0 0 255
-0.630608 0.426024 -2.35425 0 0 255
-0.398654 0.363872 -0.730343 0 0 255
-0.500052 0.391042 -2.07341 0 0 255
-0.642509 0.429213 -2.31998 0 0 255
-0.570182 0.409833 -1.90907 0 0 255
-0.428243 0.3718 -1.45671 0 0 255
-0.423032 0.370404 -1.31054 0 0 255
-0.454784 0.378912 -1.6886 0 0 255
-0.301586 0.337862 0.189824 0 0 255
-0.54314 0.402587 -1.57428 0 0 255
-0.493581 0.389307 -1.65186 0 0 255
-0.450651 0.377805 -1.38681 0 0 255
-0.373209 0.357053 -0.373466 0 0 255
-0.317906 0.342235 0.0744868 0 0 255
-0.603737 0.418824 -2.29374 0 0 255
-0.393099 0.362383 -0.885106 0 0 255
-0.446357 0.376653 -0.871612 0 0 255
-0.339262 0.347958 -0.6924 0 0 255
-0.614949 0.421828 -2.1921 0 0 255
-0.39506 0.362909 -0.692864 0 0 255
-0.521913 0.396899 -1.49916 0 0 255
-0.362254 0.354119 -1.07128 0 0 255
-0.445886 0.376528 -1.46445 0 0 255
-0.4141 0.368011 -1.76156 0 0 255
-0.468521 0.382593 -1.38798 0 0 255
-0.521335 0.396744 -1.60068 0 0 255
-0.364991 0.354852 -0.723973 0 0 255
-0.435273 0.373684 -0.967059 0 0 255
-0.427186 0.371517 -1.00665 0 0 255
-0.544326 0.402905 -1.98507 0 0 255
-0.411976 0.367442 -1.2814 0 0 255
-0.380287 0.358951 -1.66736 0 0 255
-0.505184 0.392417 -1.83286 0 0 255
-0.471245 0.383323 -1.88584 0 0 255
-0.57834 0.412019 -1.92248 0 0 255
-0.530688 0.399251 -2.20556 0 0 255
-0.412003 0.367449 -1.9699 0 0 255
-0.414247 0.36805 -1.02056 0 0 255
-0.383643 0.359849 -0.713955 0 0 255
-0.467721 0.382378 -1.54469 0 0 255
-0.492224 0.388944 -1.84617 0 0 255
-0.357286 0.352787 -0.365926 0 0 255
-0.448821 0.377314 -1.68792 0 0 255
-0.415811 0.368469 -1.39692 0 0 255
-0.485521 0.387148 -1.87086 0 0 255
-0.394204 0.362679 -0.503347 0 0 255
-0.598786 0.417497 -2.21364 0 0 255
-0.567961 0.409238 -2.16802 0 0 255
-0.384031 0.359953 -0.842397 0 0 255
-0.478169 0.385178 -1.58489 0 0 255
-0.489704 0.388269 -1.76968 0 0 255
-0.422772 0.370334 -1.05583 0 0 255
-0.388841 0.361242 -1.12177 0 0 255
-0.562609 0.407804 -1.90435 0 0 255
-0.58691 0.414315 -2.11837 0 0 255
-0.413961 0.367973 -1.15327 0 0 255
-0.620297 0.423261 -2.28642 0 0 255
-0.350603 0.350996 -0.1957 0 0 255
-0.406166 0.365884 -0.725365 0 0 255
-0.559802 0.407051 -1.87223 0 0 255
-0.383972 0.359937 -0.683227 0 0 255
-0.597802 0.417234 -2.25761 0 0 255
-0.34814 0.350337 -1.00391 0 0 255
-0.410412 0.367022 -0.731818 0 0 255
-0.499521 0.3909 -2.02543 0 0 255
-0.456476 0.379366 -1.89496 0 0 255
-0.388132 0.361053 -1.08871 0 0 255
-0.484078 0.386761 -1.95164 0 0 255
-0.520253 0.396454 -1.92214 0 0 255
-0.453365 0.378531 -0.947287 0 0 255
-0.507284 0.392979 -1.40773 0 0 255
-0.431906 0.372782 -1.63218 0 0 255
-0.524404 0.397567 -1.63153 0 0 255
-0.405709 0.365763 -1.89972 0 0 255
-0.384967 0.360204 -0.869249 0 0 255
-0.522045 0.396934 -1.65278 0 0 255
-0.35819 0.35303 -0.963211 0 0 255
-0.40394 0.365289 -1.58084 0 0 255
-0.358309 0.353061 -0.265546 0 0 255
-0.49655 0.390103 -1.88916 0 0 255
-0.358767 0.353184 -1.19009 0 0 255
-0.403053 0.365051 -1.63588 0 0 255
-0.419056 0.369338 -0.908672 0 0 255
-0.435446 0.37373 -0.965127 0 0 255
-0.340544 0.348301 -0.309055 0 0 255
-0.379813 0.358823 -1.21856 0 0 255
-0.552344 0.405053 -1.85527 0 0 255
-0.594914 0.41646 -2.19746 0 0 255
-0.516811 0.395532 -2.09942 0 0 255
-0.401903 0.364743 -1.42159 0 0 255
-0.488059 0.387828 -1.45633 0 0 255
-0.355476 0.352302 -0.661989 0 0 255
-0.44469 0.376207 -1.741 0 0 255
-0.417282 0.368863 -1.70139 0 0 255
-0.395173 0.362939 -0.988906 0 0 255
-0.563034 0.407918 -2.27243 0 0 255
-0.463695 0.381299 -1.15045 0 0 255
-0.464342 0.381473 -1.61186 0 0 255
-0.412418 0.367559 -0.660891 0 0 255
-0.570789 0.409995 -2.01521 0 0 255
-0.501927 0.391544 -2.04705 0 0 255
-0.390492 0.361685 -0.829196 0 0 255
-0.575364 0.411221 -2.06173 0 0 255
-0.538724 0.401404 -1.85715 0 0 255
-0.599239 0.417619 -2.03962 0 0 255
-0.366499 0.355256 -0.350435 0 0 255
-0.435657 0.373787 -1.11971 0 0 255
-0.497971 0.390484 -1.41071 0 0 255
-0.545078 0.403106 -1.68367 0 0 255
-0.378159 0.35838 -1.14824 0 0 255
-0.52133 0.396743 -1.54215 0 0 255
-0.41769 0.368972 -0.775252 0 0 255
-0.408995 0.366642 -0.799976 0 0 255
-0.539546 0.401624 -1.895 0 0 255
-0.561048 0.407385 -1.94954 0 0 255
-0.376268 0.357873 -0.901279 0 0 255
-0.438825 0.374636 -1.63617 0 0 255
-0.375526 0.357674 -0.400286 0 0 255
-0.483509 0.386609 -1.85243 0 0 255
-0.510554 0.393856 -1.72846 0 0 255
-0.355184 0.352224 -0.229457 0 0 255
-0.382921 0.359656 -0.837948 0 0 255
-0.421456 0.369982 -1.82581 0 0 255
-0.363395 0.354424 -0.324605 0 0 255
-0.502115 0.391595 -2.10141 0 0 255
-0.554817 0.405716 -1.72191 0 0 255
-0.4023 0.364849 -1.83238 0 0 255
-0.481244 0.386002 -2.12514 0 0 255
-0.417038 0.368798 -1.45249 0 0 255
-0.372955 0.356986 -1.51245 0 0 255
-0.558261 0.406639 -2.2422 0 0 255
-0.49476 0.389624 -2.15031 0 0 255
-0.437886 0.374384 -1.28472 0 0 255
-0.423531 0.370538 -1.8292 0 0 255
-0.387501 0.360884 -1.438 0 0 255
-0.445311 0.376374 -1.82979 0 0 255
-0.358682 0.353161 -0.424323 0 0 255
-0.430186 0.372321 -1.28056 0 0 255
-0.346845 0.349989 -0.4564 0 0 255
-0.329303 0.345289 -0.334435 0 0 255
-0.589819 0.415095 -2.23529 0 0 255
-0.620182 0.42323 -2.15495 0 0 255
-0.424148 0.370703 -1.12024 0 0 255
-0.474213 0.384118 -1.23206 0 0 255
-0.326356 0.344499 -0.0235246 0 0 255
-0.541229 0.402075 -2.22316 0 0 255
-0.350647 0.351008 -0.611033 0 0 255
-0.576966 0.41165 -1.89169 0 0 255
-0.386536 0.360625 -1.46371 0 0 255
-0.443236 0.375818 -1.85471 0 0 255
-0.370253 0.356262 -0.907806 0 0 255
-0.387046 0.360762 -1.21592 0 0 255
-0.432965 0.373066 -2.04613 0 0 255
-0.490375 0.388449 -1.72649 0 0 255
-0.407638 0.366279 -1.0801 0 0 255
-0.362089 0.354074 -0.424578 0 0 255
-0.612369 0.421137 -2.30828 0 0 255
-0.426265 0.37127 -1.4878 0 0 255
-0.364105 0.354615 -1.1984 0 0 255
-0.488679 0.387994 -1.74871 0 0 255
-0.3917 0.362008 -0.58287 0 0 255
-0.530008 0.399068 -1.74272 0 0 255
-0.341874 0.348657 -0.724952 0 0 255
-0.53211 0.399631 -1.53739 0 0 255
-0.370122 0.356227 -1.29321 0 0 255
-0.428428 0.37185 -0.892751 0 0 255
-0.553858 0.405459 -1.83156 0 0 255
-0.641585 0.428965 -2.3958 0 0 255
-0.378231 0.358399 -0.386562 0 0 255
-0.480633 0.385838 -1.36917 0 0 255
-0.314625 0.341356 -0.169252 0 0 255
-0.41936 0.36942 -1.31675 0 0 255
-0.488742 0.388011 -2.10655 0 0 255
-0.358514 0.353116 -0.711049 0 0 255
-0.417444 0.368907 -1.99917 0 0 255
-0.364088 0.35461 -1.34134 0 0 255
-0.369276 0.356 -0.659326 0 0 255
-0.355171 0.352221 -1.15145 0 0 255
-0.327675 0.344853 -0.457253 0 0 255
-0.408235 0.366439 -1.67964 0 0 255
-0.610787 0.420713 -2.22805 0 0 255
-0.40416 0.365347 -0.950417 0 0 255
-0.44946 0.377485 -1.32548 0 0 255
-0.520915 0.396632 -1.60154 0 0 255
-0.470337 0.38308 -1.84859 0 0 255
-0.473232 0.383855 -2.01995 0 0 255
-0.356891 0.352681 -0.806192 0 0 255
-0.365963 0.355112 -0.312895 0 0 255
-0.590964 0.415401 -2.10406 0 0 255
-0.415276 0.368326 -1.98581 0 0 255
-0.364291 0.354664 -0.731212 0 0 255
-0.384803 0.360161 -1.33041 0 0 255
-0.385014 0.360217 -0.91308 0 0 255
-0.363709 0.354508 -0.66018 0 0 255
-0.472305 0.383607 -1.31186 0 0 255
-0.570072 0.409803 -2.05856 0 0 255
-0.334587 0.346705 -0.304103 0 0 255
-0.491211 0.388673 -1.74271 0 0 255
-0.41371 0.367906 -1.60485 0 0 255
-0.430737 0.372468 -1.21646 0 0 255
-0.533919 0.400116 -1.56069 0 0 255
-0.397071 0.363447 -0.697441 0 0 255
-0.474092 0.384086 -1.93654 0 0 255
-0.529634 0.398968 -1.99379 0 0 255
-0.441108 0.375247 -1.44176 0 0 255
-0.433819 0.373294 -1.26422 0 0 255
-0.342875 0.348926 -0.863671 0 0 255
-0.44823 0.377156 -1.3947 0 0 255
-0.516798 0.395529 -2.0481 0 0 255
-0.506435 0.392752 -1.62551 0 0 255
-0.329732 0.345404 -0.0587214 0 0 255
-0.476609 0.38476 -1.32785 0 0 255
-0.391274 0.361894 -0.514486 0 0 255
-0.489832 0.388303 -1.60005 0 0 255
-0.606317 0.419515 -2.316 0 0 255
-0.376947 0.358055 -0.647176 0 0 255
-0.537259 0.401011 -2.13002 0 0 255
-0.477637 0.385035 -1.2929 0 0 255
-0.338193 0.347671 -0.26272 0 0 255
-0.329135 0.345244 -0.151741 0 0 255
-0.570635 0.409954 -1.96506 0 0 255
-0.366963 0.35538 -0.495277 0 0 255
-0.470898 0.38323 -2.02996 0 0 255
-0.484966 0.386999 -1.70292 0 0 255
-0.446542 0.376704 -1.79252 0 0 255
-0.397356 0.363524 -1.19298 0 0 255
-0.35488 0.352142 -0.311598 0 0 255
-0.495488 0.389818 -1.65094 0 0 255
-0.424375 0.370764 -1.47199 0 0 255
-0.627583 0.425213 -2.27909 0 0 255
-0.374754 0.357468 -0.670154 0 0 255
-0.40962 0.36681 -0.693652 0 0 255
-0.440722 0.375144 -1.61974 0 0 255
-0.431147 0.372579 -1.73376 0 0 255
-0.485821 0.387228 -1.47624 0 0 255
-0.493818 0.389371 -1.99103 0 0 255
-0.496274 0.390029 -2.0167 0 0 255
-0.603126 0.41866 -2.08548 0 0 255
-0.426607 0.371362 -1.38933 0 0 255
-0.391192 0.361873 -1.86971 0 0 255
-0.467416 0.382297 -1.27399 0 0 255
-0.392573 0.362242 -1.05498 0 0 255
-0.344353 0.349322 -0.852222 0 0 255
-0.296822 0.336585 0.195553 0 0 255
-0.381634 0.359311 -1.27305 0 0 255
-0.509783 0.393649 -2.09215 0 0 255
-0.42406 0.370679 -1.21425 0 0 255
-0.447278 0.3769 -1.20913 0 0 255
-0.520602 0.396548 -1.812 0 0 255
-0.360375 0.353615 -1.06586 0 0 255
-0.434731 0.373539 -1.94763 0 0 255
-0.559735 0.407033 -1.84072 0 0 255
-0.500814 0.391246 -1.95092 0 0 255
-0.422428 0.370242 -0.68992 0 0 255
-0.382853 0.359638 -0.530201 0 0 255
-0.567703 0.409169 -2.08457 0 0 255
-0.389213 0.361342 -0.805428 0 0 255
-0.522657 0.397099 -2.05954 0 0 255
-0.393595 0.362516 -0.939375 0 0 255
-0.558159 0.406611 -1.76641 0 0 255
-0.550124 0.404458 -2.24124 0 0 255
-0.392036 0.362098 -0.825207 0 0 255
-0.512633 0.394413 -1.6464 0 0 255
-0.567277 0.409055 -2.1289 0 0 255
-0.489556 0.388229 -1.44188 0 0 255
-0.542757 0.402485 -2.12 0 0 255
-0.454966 0.378961 -1.67929 0 0 255
-0.653819 0.432243 -2.4034 0 0 255
-0.479614 0.385565 -1.82361 0 0 255
-0.312647 0.340826 0.00150837 0 0 255
-0.384199 0.359998 -0.643581 0 0 255
-0.45496 0.378959 -2.04898 0 0 255
-0.353397 0.351745 -0.212431 0 0 255
-0.599514 0.417692 -2.26953 0 0 255
-0.476144 0.384635 -1.7047 0 0 255
-0.399688 0.364149 -1.28964 0 0 255
-0.485811 0.387225 -1.28663 0 0 255
-0.375701 0.357721 -0.386446 0 0 255
-0.3867 0.360669 -1.14491 0 0 255
-0.419921 0.36957 -1.44053 0 0 255
-0.409004 0.366645 -1.64743 0 0 255
-0.496718 0.390148 -1.3261 0 0 255
-0.511734 0.394172 -1.61236 0 0 255
-0.641209 0.428865 -2.31895 0 0 255
-0.429352 0.372098 -1.79409 0 0 255
-0.570425 0.409898 -1.97752 0 0 255
-0.530252 0.399134 -1.78718 0 0 255
-0.497095 0.390249 -1.59497 0 0 255
-0.526314 0.398078 -1.95202 0 0 255
-0.360378 0.353616 -0.581715 0 0 255
-0.457123 0.379539 -1.75701 0 0 255
-0.404484 0.365434 -1.47705 0 0 255
-0.335676 0.346997 -0.63903 0 0 255
-0.381908 0.359385 -1.17996 0 0 255
-0.61022 0.420561 -2.16004 0 0 255
-0.471431 0.383372 -1.2008 0 0 255
-0.375167 0.357578 -0.70117 0 0 255
-0.379255 0.358673 -0.444687 0 0 255
-0.510707 0.393896 -1.52254 0 0 255
-0.328792 0.345152 -0.0243432 0 0 255
-0.399051 0.363978 -0.65829 0 0 255
-0.388732 0.361214 -1.61429 0 0 255
-0.357361 0.352807 -1.17385 0 0 255
-0.375351 0.357628 -0.91429 0 0 255
-0.611556 0.420919 -2.15415 0 0 255
-0.329823 0.345428 -0.550192 0 0 255
-0.411715 0.367372 -1.96197 0 0 255
-0.472003 0.383526 -1.71511 0 0 255
-0.43527 0.373683 -1.8807 0 0 255
-0.423192 0.370447 -1.58059 0 0 255
-0.361695 0.353968 -0.465824 0 0 255
-0.404677 0.365486 -1.01121 0 0 255
-0.472992 0.383791 -2.07743 0 0 255
-0.422293 0.370206 -1.28324 0 0 255
-0.412672 0.367628 -1.51736 0 0 255
-0.528953 0.398786 -2.01182 0 0 255
-0.407665 0.366286 -1.42066 0 0 255
-0.466137 0.381954 -1.34858 0 0 255
-0.497958 0.39048 -1.46614 0 0 255
-0.304652 0.338683 0.115579 0 0 255
-0.551984 0.404957 -2.095 0 0 255
-0.534504 0.400273 -1.86825 0 0 255
-0.468347 0.382546 -1.97091 0 0 255
-0.437406 0.374255 -0.924927 0 0 255
-0.625736 0.424719 -2.33533 0 0 255
-0.396754 0.363363 -1.61804 0 0 255
-0.517936 0.395833 -1.72564 0 0 255
-0.320605 0.342958 -0.234281 0 0 255
-0.494231 0.389482 -1.59069 0 0 255
-0.470429 0.383104 -1.81422 0 0 255
-0.503394 0.391937 -1.72592 0 0 255
-0.40339 0.365141 -1.56751 0 0 255
-0.416669 0.368699 -1.04897 0 0 255
-0.353547 0.351785 -0.617464 0 0 255
-0.445327 0.376378 -1.62018 0 0 255
-0.475273 0.384402 -1.50344 0 0 255
-0.437443 0.374265 -0.864894 0 0 255
-0.614366 0.421672 -2.34815 0 0 255
-0.408963 0.366635 -2.01021 0 0 255
-0.361602 0.353944 -1.01955 0 0 255
-0.470564 0.38314 -1.59114 0 0 255
-0.433292 0.373153 -1.89673 0 0 255
-0.503778 0.39204 -1.70059 0 0 255
-0.544761 0.403021 -1.60215 0 0 255
-0.315535 0.341599 0.0335081 0 0 255
-0.525788 0.397937 -1.48037 0 0 255
-0.58044 0.412581 -1.95477 0 0 255
-0.545833 0.403308 -1.734 0 0 255
-0.522595 0.397082 -1.66371 0 0 255
-0.538114 0.40124 -1.88692 0 0 255
-0.359993 0.353512 -0.360347 0 0 255
-0.422369 0.370226 -1.21924 0 0 255
-0.468882 0.382689 -1.24564 0 0 255
-0.366669 0.355301 -0.691649 0 0 255
-0.364904 0.354828 -0.766674 0 0 255
-0.382996 0.359677 -1.66635 0 0 255
-0.364836 0.35481 -0.351033 0 0 255
-0.650837 0.431444 -2.40893 0 0 255
-0.610416 0.420614 -2.22722 0 0 255
-0.54386 0.40278 -1.74342 0 0 255
-0.432858 0.373037 -1.91987 0 0 255
-0.457564 0.379657 -2.07039 0 0 255
-0.471112 0.383287 -1.53964 0 0 255
-0.430431 0.372386 -0.970236 0 0 255
-0.420278 0.369666 -1.93205 0 0 255
-0.421595 0.370019 -1.41254 0 0 255
-0.435454 0.373732 -0.987535 0 0 255
-0.395825 0.363114 -1.54304 0 0 255
-0.408289 0.366454 -1.83351 0 0 255
-0.472559 0.383675 -1.87558 0 0 255
-0.520198 0.396439 -1.715 0 0 255
-0.363237 0.354382 -0.76918 0 0 255
-0.519271 0.396191 -1.72766 0 0 255
-0.428813 0.371953 -1.41578 0 0 255
-0.448701 0.377282 -1.71337 0 0 255
-0.387926 0.360998 -1.71774 0 0 255
-0.367675 0.355571 -0.97552 0 0 255
-0.531864 0.399566 -2.06513 0 0 255
-0.394421 0.362737 -0.837211 0 0 255
-0.40488 0.36554 -1.33146 0 0 255
-0.40189 0.364739 -1.16947 0 0 255
-0.475021 0.384334 -1.1134 0 0 255
-0.347959 0.350288 -0.265344 0 0 255
-0.340164 0.348199 -0.309053 0 0 255
-0.413887 0.367953 -0.688977 0 0 255
-0.457046 0.379518 -1.5851 0 0 255
-0.333998 0.346547 -0.182318 0 0 255
-0.355555 0.352324 -0.886898 0 0 255
-0.566487 0.408843 -1.74411 0 0 255
-0.39623 0.363222 -1.04064 0 0 255
-0.567041 0.408991 -1.76556 0 0 255
-0.427626 0.371635 -1.42726 0 0 255
-0.309702 0.340037 0.0151914 0 0 255
-0.525881 0.397963 -2.06992 0 0 255
-0.309483 0.339978 0.122325 0 0 255
-0.433123 0.373108 -1.04638 0 0 255
-0.33954 0.348032 -0.531846 0 0 255
-0.379267 0.358677 -1.02807 0 0 255
-0.608723 0.42016 -2.19404 0 0 255
-0.38911 0.361314 -0.921322 0 0 255
-0.387616 0.360914 -0.449725 0 0 255
-0.479192 0.385452 -1.53126 0 0 255
-0.343167 0.349004 -0.50775 0 0 255
-0.466989 0.382182 -1.82248 0 0 255
-0.391185 0.36187 -0.652283 0 0 255
-0.476202 0.384651 -1.23181 0 0 255
-0.557788 0.406512 -1.90417 0 0 255
-0.512481 0.394372 -2.14099 0 0 255
-0.346209 0.349819 -0.948019 0 0 255
-0.333809 0.346496 -0.478265 0 0 255
-0.442194 0.375538 -0.914336 0 0 255
-0.516026 0.395322 -1.65342 0 0 255
-0.401062 0.364517 -0.824169 0 0 255
-0.564405 0.408285 -1.95692 0 0 255
-0.474939 0.384312 -1.53736 0 0 255
-0.387958 0.361006 -0.972492 0 0 255
-0.453281 0.378509 -0.974887 0 0 255
-0.346197 0.349816 -0.252284 0 0 255
-0.351632 0.351272 -0.813666 0 0 255
-0.389756 0.361488 -1.01247 0 0 255
-0.471795 0.38347 -2.12337 0 0 255
-0.477876 0.3851 -1.70759 0 0 255
-0.39041 0.361663 -1.56249 0 0 255
-0.548545 0.404035 -2.13733 0 0 255
-0.422129 0.370162 -1.70574 0 0 255
-0.32954 0.345352 -0.290129 0 0 255
-0.48817 0.387858 -1.84246 0 0 255
-0.403617 0.365202 -2.01118 0 0 255
-0.550105 0.404453 -1.97625 0 0 255
-0.400778 0.364441 -1.59876 0 0 255
-0.431352 0.372633 -0.781685 0 0 255
-0.413625 0.367883 -0.828797 0 0 255
-0.431866 0.372771 -1.99711 0 0 255
-0.326518 0.344543 -0.43062 0 0 255
-0.405011 0.365575 -1.49095 0 0 255
-0.469102 0.382748 -1.30512 0 0 255
-0.472436 0.383642 -1.86155 0 0 255
-0.57803 0.411936 -1.91148 0 0 255
-0.411794 0.367392 -0.944727 0 0 255
-0.485982 0.387271 -1.60653 0 0 255
-0.33684 0.347308 -0.226418 0 0 255
-0.510316 0.393792 -1.42291 0 0 255
-0.511121 0.394007 -1.45191 0 0 255
-0.331981 0.346006 -0.155898 0 0 255
-0.49197 0.388876 -1.33638 0 0 255
-0.548102 0.403916 -1.75331 0 0 255
-0.399676 0.364146 -1.5081 0 0 255
-0.360893 0.353754 -1.22827 0 0 255
-0.533168 0.399915 -2.03808 0 0 255
-0.383296 0.359757 -1.01795 0 0 255
-0.513694 0.394697 -1.76383 0 0 255
-0.607407 0.419807 -2.22421 0 0 255
-0.612212 0.421095 -2.20368 0 0 255
-0.467963 0.382443 -1.88919 0 0 255
-0.632366 0.426495 -2.22597 0 0 255
-0.472757 0.383728 -1.92118 0 0 255
-0.413005 0.367717 -1.28824 0 0 255
-0.390225 0.361613 -1.51724 0 0 255
-0.341191 0.348474 -0.197296 0 0 255
-0.403177 0.365084 -1.44879 0 0 255
-0.530784 0.399276 -1.74131 0 0 255
-0.469403 0.382829 -1.18734 0 0 255
-0.477141 0.384902 -1.3108 0 0 255
-0.422077 0.370148 -1.82208 0 0 255
-0.326729 0.344599 -0.48458 0 0 255
-0.378753 0.358539 -1.24998 0 0 255
-0.406549 0.365987 -0.946791 0 0 255
-0.478545 0.385279 -1.8638 0 0 255
-0.506858 0.392865 -1.64021 0 0 255
-0.449789 0.377573 -1.56741 0 0 255
-0.573684 0.410771 -1.91522 0 0 255
-0.413337 0.367806 -0.655364 0 0 255
-0.6143 0.421654 -2.12054 0 0 255
-0.519933 0.396369 -1.99266 0 0 255
-0.4095 0.366778 -1.22047 0 0 255
-0.6165 0.422244 -2.29618 0 0 255
-0.449411 0.377472 -0.9027 0 0 255
-0.378088 0.358361 -0.651292 0 0 255
-0.55909 0.406861 -1.90944 0 0 255
-0.402864 0.365 -1.13667 0 0 255
-0.540853 0.401974 -1.81297 0 0 255
-0.4276 0.371628 -1.81874 0 0 255
-0.441819 0.375438 -0.99405 0 0 255
-0.381911 0.359386 -1.47833 0 0 255
-0.391986 0.362085 -1.5443 0 0 255
-0.392246 0.362155 -0.913695 0 0 255
-0.615754 0.422044 -2.20603 0 0 255
-0.554267 0.405568 -1.72227 0 0 255
-0.551816 0.404911 -1.72711 0 0 255
-0.550123 0.404458 -1.86122 0 0 255
-0.336185 0.347133 -0.638734 0 0 255
-0.436616 0.374044 -1.28462 0 0 255
-0.507493 0.393035 -1.50164 0 0 255
-0.497969 0.390483 -1.84702 0 0 255
-0.408968 0.366635 -0.91089 0 0 255
-0.403972 0.365296 -0.643531 0 0 255
-0.38922 0.361344 -1.20215 0 0 255
-0.390488 0.361683 -0.523531 0 0 255
-0.329476 0.345335 -0.494326 0 0 255
-0.339906 0.34813 -0.520258 0 0 255
-0.383393 0.359783 -1.28715 0 0 255
-0.377005 0.358071 -0.701069 0 0 255
-0.39966 0.364141 -1.07982 0 0 255
-0.310672 0.340297 -0.0620668 0 0 255
-0.326977 0.344666 -0.275679 0 0 255
-0.338056 0.347634 -0.549269 0 0 255
-0.388943 0.36127 -1.58456 0 0 255
-0.562582 0.407796 -2.11397 0 0 255
-0.511751 0.394176 -1.53419 0 0 255
-0.331981 0.346006 -0.314647 0 0 255
-0.542887 0.402519 -1.96457 0 0 255
-0.506914 0.39288 -1.78601 0 0 255
-0.474635 0.384231 -2.06573 0 0 255
-0.377938 0.358321 -0.699457 0 0 255
-0.331612 0.345908 -0.55967 0 0 255
-0.449173 0.377409 -1.64371 0 0 255
-0.464625 0.381549 -1.58196 0 0 255
-0.496916 0.390201 -1.63956 0 0 255
-0.3785 0.358471 -0.557455 0 0 255
-0.568439 0.409366 -1.85733 0 0 255
-0.502382 0.391666 -1.56825 0 0 255
-0.406961 0.366098 -1.34394 0 0 255
-0.33003 0.345484 -0.0751006 0 0 255
-0.583529 0.413409 -2.02935 0 0 255
-0.412096 0.367473 -0.765652 0 0 255
-0.406702 0.366029 -1.88685 0 0 255
-0.519191 0.39617 -2.15238 0 0 255
-0.560766 0.40731 -1.8094 0 0 255
-0.40791 0.366352 -0.707308 0 0 255
-0.387505 0.360885 -1.69973 0 0 255
-0.455002 0.378971 -1.70659 0 0 255
-0.541472 0.40214 -2.09225 0 0 255
-0.370374 0.356294 -1.27781 0 0 255
-0.465084 0.381672 -1.9758 0 0 255
-0.593283 0.416023 -1.99555 0 0 255
-0.500006 0.391029 -1.61861 0 0 255
-0.539745 0.401677 -1.84261 0 0 255
-0.453138 0.378471 -1.67694 0 0 255
-0.325475 0.344263 -0.0321378 0 0 255
-0.430028 0.372279 -1.7055 0 0 255
-0.294774 0.336037 0.221269 0 0 255
-0.411824 0.367401 -1.14661 0 0 255
-0.520795 0.3966 -1.70979 0 0 255
-0.543558 0.402699 -1.99365 0 0 255
-0.574494 0.410988 -2.17836 0 0 255
-0.349392 0.350672 -0.170005 0 0 255
-0.533057 0.399885 -1.90863 0 0 255
-0.565442 0.408563 -2.26139 0 0 255
-0.423835 0.370619 -1.11796 0 0 255
-0.504716 0.392291 -1.85883 0 0 255
-0.402804 0.364984 -1.00507 0 0 255
-0.442112 0.375517 -1.91629 0 0 255
-0.35219 0.351422 -1.02013 0 0 255
-0.347252 0.350099 -0.914336 0 0 255
-0.573079 0.410609 -1.84579 0 0 255
-0.39502 0.362899 -1.66617 0 0 255
-0.501507 0.391431 -1.87563 0 0 255
-0.606857 0.41966 -2.29084 0 0 255
-0.391428 0.361936 -1.8539 0 0 255
-0.454908 0.378945 -1.66814 0 0 255
-0.379853 0.358834 -1.12549 0 0 255
-0.334416 0.346659 -0.153101 0 0 255
-0.546563 0.403504 -1.78882 0 0 255
-0.384585 0.360102 -0.531269 0 0 255
-0.404663 0.365482 -1.7422 0 0 255
-0.42176 0.370063 -0.770793 0 0 255
-0.535308 0.400488 -1.72504 0 0 255
-0.504474 0.392226 -1.78054 0 0 255
-0.43195 0.372794 -1.7797 0 0 255
-0.426156 0.371241 -1.71985 0 0 255
-0.627389 0.425161 -2.21195 0 0 255
-0.411425 0.367294 -1.97228 0 0 255
-0.33817 0.347665 -0.531125 0 0 255
-0.504492 0.392231 -2.06545 0 0 255
-0.32899 0.345205 -0.0725374 0 0 255
