ply
format ascii 1.0
comment Created by Open3D
element vertex 1326
property double x
property double y
property double z
property uchar red
property uchar green
property uchar blue
end_header
-0.939036 0.263934 -1.38308 0 0 255
-0.948993 0.219427 -1.39203 0 0 255
-1.26809 0.161596 -0.0123469 0 0 255
-1.18402 0.16039 -0.395896 0 0 255
-0.841291 0.145889 -1.971 0 0 255
-0.785996 0.0514956 -2.33722 0 0 255
-1.00603 0.169283 -1.19388 0 0 255
-1.16692 0.132189 -0.507926 0 0 255
-0.888216 0.137812 -1.7676 0 0 255
-1.22855 0.158901 -0.195343 0 0 255
-0.727083 0.239406 -2.37613 0 0 255
-0.832859 0.166281 -1.98449 0 0 255
-1.06126 0.037976 -1.1028 0 0 255
-1.26959 0.141044 -0.0305741 0 0 255
-1.0318 0.0915539 -1.17144 0 0 255
-1.02027 0.149876 -1.1528 0 0 255
-0.998618 0.258252 -1.11924 0 0 255
-0.865041 0.193279 -1.80537 0 0 255
-1.01742 0.164226 -1.14831 0 0 255
-1.19793 0.110754 -0.393113 0 0 255
-0.970051 0.140496 -1.39245 0 0 255
-0.905645 0.0628668 -1.77965 0 0 255
-0.792795 0.266128 -2.04498 0 0 255
-0.698426 0.353346 -2.36763 0 0 255
-0.898298 0.316399 -1.50433 0 0 255
-0.931114 0.181156 -1.51988 0 0 255
-0.905216 0.116275 -1.71657 0 0 255
-0.874093 0.107919 -1.86818 0 0 255
-1.06147 0.0903779 -1.03801 0 0 255
-0.899306 0.194597 -1.64806 0 0 255
-0.755549 0.38732 -2.06667 0 0 255
-1.31624 0.115534 0.150353 0 0 255
-0.877621 0.044034 -1.92994 0 0 255
-0.8038 0.10887 -2.18645 0 0 255
-0.907532 0.101108 -1.72451 0 0 255
-1.11325 0.108914 -0.78018 0 0 255
-0.87357 -0.0231061 -2.0301 0 0 255
-1.10207 0.0997788 -0.842107 0 0 255
-0.784274 0.02549 -2.37672 0 0 255
-0.850069 0.348411 -1.68452 0 0 255
-1.02486 0.198295 -1.07301 0 0 255
-0.699167 0.298775 -2.43071 0 0 255
-0.826647 0.0959399 -2.09837 0 0 255
-0.896582 0.294404 -1.53891 0 0 255
-0.887808 0.260794 -1.6197 0 0 255
-1.01047 0.193018 -1.14479 0 0 255
-0.810366 0.0799128 -2.19188 0 0 255
-1.09807 0.225713 -0.706902 0 0 255
-0.773564 0.359113 -2.01915 0 0 255
-0.694031 0.397655 -2.33364 0 0 255
-0.861058 0.338166 -1.64705 0 0 255
-0.945613 -0.00684052 -1.6829 0 0 255
-1.0521 0.0538087 -1.12513 0 0 255
-1.16798 0.0566456 -0.595097 0 0 255
-1.10934 0.0561075 -0.862245 0 0 255
-1.02127 0.234421 -1.04533 0 0 255
-0.843234 0.129515 -1.98212 0 0 255
-1.20421 0.120843 -0.352296 0 0 255
-0.901288 0.113652 -1.73761 0 0 255
-0.746255 0.260617 -2.26318 0 0 255
-0.96774 0.286223 -1.2255 0 0 255
-0.891029 0.27611 -1.58642 0 0 255
-0.724297 0.201246 -2.43526 0 0 255
-0.801642 0.370181 -1.87808 0 0 255
-1.13248 0.219667 -0.557909 0 0 255
-0.783079 0.180357 -2.19357 0 0 255
-1.0582 0.137141 -0.995957 0 0 255
-0.811504 0.0813049 -2.18501 0 0 255
-1.07042 0.188485 -0.877905 0 0 255
-1.07861 0.0758105 -0.977878 0 0 255
-0.871774 0.0676542 -1.92775 0 0 255
-0.763752 0.254104 -2.1916 0 0 255
-0.769951 0.370546 -2.02165 0 0 255
-0.772919 0.312755 -2.07853 0 0 255
-1.1485 0.180269 -0.533103 0 0 255
-0.824995 0.291524 -1.86773 0 0 255
-0.749493 0.280638 -2.22409 0 0 255
-1.30834 0.0985055 0.0937352 0 0 255
-0.895758 0.0158622 -1.88182 0 0 255
-0.896377 0.224534 -1.62492 0 0 255
-0.973649 0.168354 -1.34218 0 0 255
-0.687887 0.365672 -2.40051 0 0 255
-1.00527 0.0958642 -1.28673 0 0 255
-0.79613 0.00511337 -2.34765 0 0 255
-0.853926 0.245783 -1.79195 0 0 255
-0.808445 0.137058 -2.13102 0 0 255
-1.06607 0.137732 -0.959456 0 0 255
-1.0052 0.0920785 -1.29169 0 0 255
-1.18654 0.0832421 -0.478357 0 0 255
-1.02437 0.245523 -1.0177 0 0 255
-1.22007 0.142303 -0.254073 0 0 255
-0.779898 0.117541 -2.28452 0 0 255
-0.916526 0.0741128 -1.71651 0 0 255
-0.838993 0.17049 -1.9515 0 0 255
-0.9409 0.0606813 -1.6221 0 0 255
-0.838789 0.0617402 -2.08484 0 0 255
-0.778925 0.328349 -2.03225 0 0 255
-1.12333 0.0741948 -0.776613 0 0 255
-1.09892 0.0713965 -0.890956 0 0 255
-1.31904 0.124569 0.174087 0 0 255
-1.2316 0.169879 -0.168093 0 0 255
-0.787538 0.234075 -2.1079 0 0 255
-0.791909 0.317153 -1.98687 0 0 255
-0.716411 0.277252 -2.37855 0 0 255
-0.922886 0.243617 -1.48121 0 0 255
-0.971413 0.0467725 -1.50038 0 0 255
-0.882871 0.205373 -1.70962 0 0 255
-1.09903 0.0543477 -0.911209 0 0 255
-0.766276 0.0438397 -2.43616 0 0 255
-0.664926 0.429276 -2.4274 0 0 255
-1.21755 0.139761 -0.268607 0 0 255
-0.715123 0.251404 -2.41588 0 0 255
-0.855483 0.283812 -1.73857 0 0 255
-0.793864 0.301202 -1.99742 0 0 255
-1.06481 0.166484 -0.930191 0 0 255
-1.26075 0.100133 -0.120575 0 0 255
-1.04101 0.137911 -1.07311 0 0 255
-0.784724 0.181545 -2.18465 0 0 255
-1.10123 0.185884 -0.741062 0 0 255
-1.23215 0.147219 -0.193213 0 0 255
-0.813201 0.217156 -2.01188 0 0 255
-1.0013 0.170578 -1.21382 0 0 255
-0.797931 0.0592283 -2.27357 0 0 255
-1.20116 0.103895 -0.386777 0 0 255
-0.827387 0.159715 -2.01736 0 0 255
-0.80396 0.042002 -2.26715 0 0 255
-0.899963 0.324036 -1.48746 0 0 255
-1.33117 0.128778 0.234335 0 0 255
-1.277 0.120447 -0.0219736 0 0 255
-0.963395 0.153765 -1.40653 0 0 255
-0.701219 0.321599 -2.39359 0 0 255
-1.11977 0.111656 -0.747205 0 0 255
-0.879408 0.216009 -1.71241 0 0 255
-0.953057 0.27979 -1.30006 0 0 255
-1.01843 0.110068 -1.20966 0 0 255
-0.951514 0.281426 -1.30508 0 0 255
-0.998639 0.189972 -1.20229 0 0 255
-0.794416 0.284874 -2.01479 0 0 255
-0.822801 0.159745 -2.03816 0 0 255
-0.857541 0.263125 -1.75441 0 0 255
-1.04936 0.144458 -1.02724 0 0 255
-0.904481 0.281193 -1.5191 0 0 255
-0.79622 0.269471 -2.02534 0 0 255
-0.96779 0.0224714 -1.54643 0 0 255
-0.78791 0.184716 -2.16631 0 0 255
-0.813674 0.176806 -2.05886 0 0 255
-0.914536 0.0924863 -1.70318 0 0 255
-0.803298 0.0160683 -2.30173 0 0 255
-0.923237 -0.0107898 -1.7894 0 0 255
-1.03445 0.0607281 -1.19692 0 0 255
-0.817478 -0.00816345 -2.2668 0 0 255
-1.03545 0.132708 -1.10471 0 0 255
-1.0121 0.193506 -1.13683 0 0 255
-1.09412 0.104252 -0.872761 0 0 255
-1.13228 0.0896117 -0.717166 0 0 255
-0.924734 0.266667 -1.44475 0 0 255
-0.771526 0.350438 -2.03897 0 0 255
-0.696903 0.39537 -2.32338 0 0 255
-0.829502 0.354833 -1.77016 0 0 255
-1.20527 0.0673947 -0.412523 0 0 255
-0.918159 0.0653993 -1.7197 0 0 255
-0.734201 0.184321 -2.41086 0 0 255
-0.813859 0.0870243 -2.16735 0 0 255
-0.71164 0.301675 -2.37049 0 0 255
-1.0401 0.0750025 -1.15385 0 0 255
-0.964208 0.0289839 -1.55478 0 0 255
-1.18026 0.132963 -0.446348 0 0 255
-0.794646 0.328757 -1.96031 0 0 255
-0.893036 0.0138193 -1.89667 0 0 255
-1.19496 0.0626399 -0.465198 0 0 255
-1.10855 0.233496 -0.649827 0 0 255
-1.24243 0.130462 -0.166896 0 0 255
-0.771755 0.185438 -2.23884 0 0 255
-1.00154 0.128394 -1.26408 0 0 255
-0.906045 0.167777 -1.65009 0 0 255
-1.23749 0.0963878 -0.230824 0 0 255
-0.845428 0.340249 -1.71554 0 0 255
-0.779436 0.102525 -2.3049 0 0 255
-1.33976 0.105335 0.244799 0 0 255
-0.924348 0.0161794 -1.75151 0 0 255
-0.839109 0.264922 -1.83598 0 0 255
-0.99153 0.0618837 -1.39056 0 0 255
-1.21504 0.128501 -0.293742 0 0 255
-1.19432 0.113491 -0.406185 0 0 255
-1.32256 0.118956 0.183226 0 0 255
-0.786102 0.0901839 -2.28963 0 0 255
-0.749161 0.332693 -2.16222 0 0 255
-0.78278 0.170253 -2.20723 0 0 255
-0.961317 0.0134121 -1.58688 0 0 255
-0.842317 0.133366 -1.98159 0 0 255
-0.917747 0.258615 -1.4863 0 0 255
-1.00807 0.0653101 -1.31122 0 0 255
-0.888796 0.135831 -1.76737 0 0 255
-1.01298 0.258192 -1.05406 0 0 255
-0.835273 0.0462937 -2.11963 0 0 255
-0.984197 0.117527 -1.35613 0 0 255
-0.705548 0.304889 -2.39426 0 0 255
-0.795614 0.0227986 -2.32846 0 0 255
-1.18569 0.0715723 -0.496426 0 0 255
-1.16499 0.194046 -0.441373 0 0 255
-0.818267 0.28466 -1.90666 0 0 255
-1.03412 0.192331 -1.03817 0 0 255
-0.956698 0.167757 -1.41993 0 0 255
-1.01968 0.221172 -1.06869 0 0 255
-1.0455 0.253206 -0.912343 0 0 255
-1.16771 0.0689681 -0.581315 0 0 255
-0.911821 0.00750339 -1.819 0 0 255
-0.765541 0.214099 -2.23218 0 0 255
-0.869615 0.095891 -1.90317 0 0 255
-1.02428 0.173163 -1.10623 0 0 255
-0.796233 0.0764638 -2.2603 0 0 255
-0.930544 0.116156 -1.60161 0 0 255
-0.789337 0.19933 -2.14203 0 0 255
-1.12437 0.156573 -0.671603 0 0 255
-1.00287 0.201179 -1.16941 0 0 255
-0.993627 0.0496476 -1.39593 0 0 255
-0.900387 0.252712 -1.57238 0 0 255
-0.909362 0.0410036 -1.78938 0 0 255
-0.815331 0.0478785 -2.20832 0 0 255
-0.948947 0.268231 -1.33281 0 0 255
-0.887292 0.0976327 -1.82072 0 0 255
-1.3456 0.107011 0.273414 0 0 255
-1.17124 0.0631481 -0.572366 0 0 255
-0.973957 0.0106235 -1.53283 0 0 255
-0.87642 0.159672 -1.79459 0 0 255
-0.931113 0.0344154 -1.69856 0 0 255
-1.11938 0.220831 -0.616014 0 0 255
-0.787409 0.311848 -2.01378 0 0 255
-0.935071 0.268882 -1.39508 0 0 255
-0.696859 0.331848 -2.40092 0 0 255
-1.10007 0.194146 -0.736286 0 0 255
-0.822095 0.319169 -1.84725 0 0 255
-0.940905 0.251749 -1.38943 0 0 255
-0.75805 0.188435 -2.29747 0 0 255
-0.818928 0.173789 -2.03866 0 0 255
-1.18805 0.190637 -0.340719 0 0 255
-0.7915 0.327227 -1.97647 0 0 255
-0.928207 0.137331 -1.58645 0 0 255
-1.141 0.116479 -0.644822 0 0 255
-0.926084 0.231866 -1.48099 0 0 255
-1.02262 0.155121 -1.13575 0 0 255
-0.809681 0.238863 -2.00144 0 0 255
-1.01368 0.267765 -1.03922 0 0 255
-1.0943 0.161506 -0.802229 0 0 255
-0.855663 0.214464 -1.82219 0 0 255
-0.742252 0.14234 -2.4254 0 0 255
-1.02129 0.152282 -1.14524 0 0 255
-0.765579 0.100465 -2.37038 0 0 255
-1.07629 0.0355372 -1.03748 0 0 255
-0.915409 0.241888 -1.5173 0 0 255
-0.928476 0.253279 -1.44405 0 0 255
-0.918985 0.0368471 -1.75071 0 0 255
-1.08227 0.239532 -0.761872 0 0 255
-0.89275 0.301643 -1.54751 0 0 255
-0.981308 0.0254263 -1.4814 0 0 255
-1.06635 0.196155 -0.887049 0 0 255
-0.726655 0.207718 -2.41666 0 0 255
-1.06821 0.0696676 -1.03262 0 0 255
-0.779891 0.0705156 -2.34181 0 0 255
-0.802744 0.0936816 -2.20975 0 0 255
-0.960526 0.115926 -1.46565 0 0 255
-0.869326 -0.0219 -2.04791 0 0 255
-0.907023 0.128658 -1.69328 0 0 255
-0.68913 0.375655 -2.38271 0 0 255
-0.711519 0.262159 -2.41916 0 0 255
-1.22035 0.117295 -0.283261 0 0 255
-1.24554 0.173068 -0.100866 0 0 255
-1.10661 0.178231 -0.725912 0 0 255
-1.02349 0.13589 -1.15522 0 0 255
-0.709129 0.359315 -2.31172 0 0 255
-0.941715 0.12938 -1.53475 0 0 255
-0.914129 0.0697726 -1.73269 0 0 255
-0.91795 0.0752444 -1.70866 0 0 255
-0.894525 0.068738 -1.82304 0 0 255
-0.944527 0.0308227 -1.64198 0 0 255
-0.853242 0.0393579 -2.04642 0 0 255
-0.91602 0.21336 -1.54926 0 0 255
-1.00722 0.232479 -1.11155 0 0 255
-1.09321 0.188249 -0.77461 0 0 255
-0.935471 0.0921229 -1.60849 0 0 255
-0.816827 0.356631 -1.82557 0 0 255
-1.08978 0.0768621 -0.925852 0 0 255
-0.964839 0.174036 -1.37529 0 0 255
-0.88771 0.11128 -1.8022 0 0 255
-0.838844 0.185633 -1.93374 0 0 255
-0.875725 0.233919 -1.70734 0 0 255
-0.81496 0.0621401 -2.19264 0 0 255
-0.760253 0.124543 -2.36526 0 0 255
-0.90738 0.247042 -1.54751 0 0 255
-0.718325 0.339075 -2.29457 0 0 255
-1.04711 0.197941 -0.972301 0 0 255
-0.959198 0.289247 -1.26064 0 0 255
-0.746375 0.258828 -2.26482 0 0 255
-0.983459 0.25317 -1.19432 0 0 255
-0.837288 0.1239 -2.01597 0 0 255
-1.18645 0.0582093 -0.509238 0 0 255
-0.69479 0.409115 -2.31624 0 0 255
-0.74467 0.370901 -2.1361 0 0 255
-0.831183 0.2624 -1.87507 0 0 255
-0.968859 0.219781 -1.30132 0 0 255
-0.981681 0.193893 -1.27458 0 0 255
-1.09902 0.207663 -0.724565 0 0 255
-1.01835 0.118909 -1.19923 0 0 255
-0.883538 0.320604 -1.56628 0 0 255
-0.947258 0.238681 -1.37647 0 0 255
-0.939612 0.182562 -1.47955 0 0 255
-0.840459 0.019929 -2.12816 0 0 255
-1.0048 0.250013 -1.1012 0 0 255
-0.785044 0.298566 -2.0407 0 0 255
-0.856314 0.277342 -1.74268 0 0 255
-1.1708 0.107479 -0.520368 0 0 255
-0.991691 0.1602 -1.27012 0 0 255
-0.870621 0.0101047 -2.00306 0 0 255
-0.762977 0.143583 -2.3297 0 0 255
-0.845002 0.0294461 -2.09593 0 0 255
-0.947771 0.281797 -1.32164 0 0 255
-0.954173 0.173831 -1.42401 0 0 255
-0.874655 0.0782316 -1.90177 0 0 255
-0.9362 0.303926 -1.34728 0 0 255
-1.22423 0.105195 -0.280377 0 0 255
-1.26334 0.124406 -0.0792404 0 0 255
-1.11678 0.152748 -0.710745 0 0 255
-1.35717 0.117199 0.338401 0 0 255
-0.7659 0.0638198 -2.41354 0 0 255
-1.11244 0.173027 -0.70578 0 0 255
-0.951331 0.0867295 -1.54298 0 0 255
-0.993133 0.138941 -1.28945 0 0 255
-0.991463 0.0757333 -1.374 0 0 255
-0.713834 0.257423 -2.41441 0 0 255
-0.801523 0.126731 -2.17505 0 0 255
-1.05523 0.13812 -1.00826 0 0 255
-1.14729 0.0903214 -0.648111 0 0 255
-0.793537 -0.0138253 -2.38249 0 0 255
-1.14332 0.176883 -0.560755 0 0 255
-0.743488 0.340213 -2.17884 0 0 255
-1.11138 0.0739 -0.831292 0 0 255
-0.916742 0.297067 -1.44405 0 0 255
-0.995561 0.0151353 -1.42916 0 0 255
-0.813748 0.213581 -2.01375 0 0 255
-0.96217 0.049501 -1.53906 0 0 255
-1.02239 0.241489 -1.03164 0 0 255
-1.17002 0.15852 -0.461758 0 0 255
-1.03613 0.0253303 -1.23239 0 0 255
-1.0279 0.0620837 -1.22503 0 0 255
-0.868389 0.0200268 -2.00112 0 0 255
-1.15101 0.187715 -0.512596 0 0 255
-1.03659 0.122468 -1.11203 0 0 255
-0.716282 0.236115 -2.42923 0 0 255
-0.833204 -0.0167823 -2.20583 0 0 255
-0.782105 0.0880147 -2.31044 0 0 255
-1.06938 0.0655074 -1.03238 0 0 255
-1.05844 0.245056 -0.863454 0 0 255
-0.686592 0.34642 -2.42984 0 0 255
-0.977816 0.0332857 -1.4877 0 0 255
-0.75749 0.377735 -2.06952 0 0 255
-0.854178 0.0541692 -2.02412 0 0 255
-0.855924 0.0799892 -1.98475 0 0 255
-0.888926 0.409217 -1.4339 0 0 255
-1.16728 0.289596 -0.31464 0 0 255
-1.07387 0.530615 -0.445628 0 0 255
-1.18225 0.244057 -0.302054 0 0 255
-0.974947 0.333157 -1.1356 0 0 255
-0.760737 0.438842 -1.98036 0 0 255
-1.0631 0.317858 -0.753629 0 0 255
-1.16786 0.494651 -0.0623108 0 0 255
-1.29095 0.240769 0.18794 0 0 255
-1.3218 0.190953 0.267458 0 0 255
-1.18786 0.570486 0.120942 0 0 255
-1.00476 0.515906 -0.777609 0 0 255
-0.964968 0.344 -1.16775 0 0 255
-1.1585 0.52957 -0.0623311 0 0 255
-1.19274 0.373436 -0.0968161 0 0 255
-1.0113 0.27919 -1.0361 0 0 255
-1.19484 0.430165 -0.0182193 0 0 255
-1.28805 0.346185 0.303106 0 0 255
-1.20702 0.296523 -0.125614 0 0 255
-1.33405 0.245059 0.389023 0 0 255
-0.812238 0.457786 -1.72325 0 0 255
-0.828535 0.446056 -1.66348 0 0 255
-0.84177 0.359687 -1.7085 0 0 255
-1.17104 0.460806 -0.089047 0 0 255
-1.16507 0.449301 -0.130205 0 0 255
-1.19347 0.385894 -0.0783605 0 0 255
-0.879818 0.418622 -1.46383 0 0 255
-0.719775 0.435803 -2.17021 0 0 255
-0.871808 0.409431 -1.51142 0 0 255
-1.24151 0.384444 0.138215 0 0 255
-1.18666 0.404501 -0.0866178 0 0 255
-1.23731 0.457681 0.208292 0 0 255
-1.12197 0.418826 -0.363158 0 0 255
-1.13512 0.433541 -0.285475 0 0 255
-1.14636 0.313938 -0.380032 0 0 255
-0.946649 0.317687 -1.28303 0 0 255
-0.997328 0.451765 -0.889473 0 0 255
-1.01019 0.441258 -0.843836 0 0 255
-1.2303 0.243524 -0.0843256 0 0 255
-1.05735 0.493527 -0.565849 0 0 255
-1.31542 0.217758 0.271122 0 0 255
-0.859414 0.469779 -1.49427 0 0 255
-1.04136 0.517381 -0.609484 0 0 255
-1.12699 0.452145 -0.299796 0 0 255
-1.24421 0.44182 0.220321 0 0 255
-1.01603 0.347761 -0.931122 0 0 255
-1.08724 0.516811 -0.4017 0 0 255
-1.26042 0.463478 0.320369 0 0 255
-1.20639 0.527733 0.153063 0 0 255
-0.897916 0.367591 -1.44373 0 0 255
-0.782099 0.388457 -1.94463 0 0 255
-0.950105 0.381512 -1.18961 0 0 255
-1.13489 0.375501 -0.357196 0 0 255
-1.22791 0.473395 0.184701 0 0 255
-1.24853 0.179792 -0.0790948 0 0 255
-1.23778 0.209623 -0.0916273 0 0 255
-0.793426 0.416435 -1.85909 0 0 255
-1.22929 0.404981 0.107673 0 0 255
-1.06143 0.458874 -0.589516 0 0 255
-0.846957 0.461366 -1.56112 0 0 255
-1.16299 0.216405 -0.423214 0 0 255
-1.17873 0.251558 -0.30892 0 0 255
-1.1502 0.495842 -0.141104 0 0 255
-0.961103 0.507499 -0.986225 0 0 255
-1.26136 0.363339 0.202718 0 0 255
-1.27531 0.250585 0.128821 0 0 255
-1.1375 0.545955 -0.137783 0 0 255
-1.09111 0.331698 -0.60948 0 0 255
-1.11146 0.453697 -0.368464 0 0 255
-1.17716 0.307696 -0.247693 0 0 255
-1.37 0.164583 0.454389 0 0 255
-1.00929 0.284427 -1.03889 0 0 255
-1.13567 0.459569 -0.251291 0 0 255
-0.936515 0.387295 -1.24433 0 0 255
-1.21042 0.461381 0.0905951 0 0 255
-1.24718 0.49197 0.294907 0 0 255
-0.908032 0.475351 -1.26654 0 0 255
-0.949983 0.341153 -1.23931 0 0 255
-1.14941 0.252565 -0.440909 0 0 255
-0.787997 0.459689 -1.83109 0 0 255
-1.08642 0.476304 -0.454729 0 0 255
-0.979904 0.30868 -1.14288 0 0 255
-0.885353 0.362 -1.50763 0 0 255
-1.28851 0.348907 0.3085 0 0 255
-1.0285 0.441829 -0.759934 0 0 255
-0.775695 0.385245 -1.97765 0 0 255
-1.25959 0.224055 0.0250541 0 0 255
-1.21361 0.51717 0.173022 0 0 255
-1.04078 0.290352 -0.888541 0 0 255
-1.17101 0.240785 -0.357104 0 0 255
-1.1589 0.442838 -0.166106 0 0 255
-0.724904 0.448876 -2.13098 0 0 255
-1.12925 0.505353 -0.224743 0 0 255
-1.14531 0.393507 -0.287927 0 0 255
-1.2111 0.306655 -0.0947232 0 0 255
-1.05633 0.461506 -0.609467 0 0 255
-0.8646 0.487472 -1.44915 0 0 255
-0.963647 0.424379 -1.07588 0 0 255
-1.28262 0.314247 0.239529 0 0 255
-1.28912 0.195234 0.124174 0 0 255
-1.2408 0.343696 0.0853753 0 0 255
-1.09264 0.526453 -0.36538 0 0 255
-1.07431 0.424649 -0.572659 0 0 255
-1.35824 0.155894 0.390366 0 0 255
-1.08978 0.255824 -0.707928 0 0 255
-1.17106 0.551778 0.0217917 0 0 255
-1.16039 0.414821 -0.193435 0 0 255
-0.830161 0.415664 -1.6931 0 0 255
-1.17057 0.376936 -0.193299 0 0 255
-1.20034 0.230806 -0.235974 0 0 255
-1.30129 0.418986 0.451923 0 0 255
-0.807337 0.444128 -1.76216 0 0 255
-1.31279 0.164929 0.194841 0 0 255
-1.23989 0.428097 0.18398 0 0 255
-1.24389 0.355887 0.114231 0 0 255
-1.17458 0.274041 -0.300399 0 0 255
-0.984363 0.471846 -0.923939 0 0 255
-1.30008 0.249061 0.239493 0 0 255
-1.14667 0.444698 -0.21941 0 0 255
-1.26351 0.230897 0.0512268 0 0 255
-1.23549 0.55421 0.317556 0 0 255
-1.25338 0.495527 0.327405 0 0 255
-0.90264 0.470622 -1.2968 0 0 255
-1.12117 0.53796 -0.221737 0 0 255
-0.973768 0.418245 -1.03735 0 0 255
-1.22238 0.345691 0.0040601 0 0 255
-1.27529 0.18645 0.0506068 0 0 255
-0.719944 0.434711 -2.17076 0 0 255
-0.88697 0.353135 -1.51107 0 0 255
-0.77117 0.442955 -1.92794 0 0 255
-0.943511 0.333849 -1.27762 0 0 255
-1.17547 0.444472 -0.0888063 0 0 255
-1.00319 0.514702 -0.786218 0 0 255
-1.29055 0.365362 0.33782 0 0 255
-1.20529 0.284799 -0.147752 0 0 255
-0.873658 0.449507 -1.45422 0 0 255
-0.958713 0.455795 -1.06004 0 0 255
-1.14583 0.352039 -0.336041 0 0 255
-1.18593 0.462635 -0.0191862 0 0 255
-1.20163 0.294647 -0.152391 0 0 255
-0.863112 0.377121 -1.59028 0 0 255
-1.02473 0.403466 -0.823774 0 0 255
-1.10405 0.325126 -0.558702 0 0 255
-1.05608 0.509943 -0.551647 0 0 255
-1.22238 0.232882 -0.133273 0 0 255
-1.02285 0.474846 -0.745386 0 0 255
-0.969347 0.335584 -1.1581 0 0 255
-1.00583 0.379888 -0.938376 0 0 255
-0.972836 0.516132 -0.922393 0 0 255
-1.35812 0.204184 0.448634 0 0 255
-1.25236 0.310497 0.0974647 0 0 255
-1.23939 0.342044 0.0769356 0 0 255
-0.838398 0.423659 -1.64593 0 0 255
-1.21467 0.371288 0.000187173 0 0 255
-1.27575 0.302359 0.193866 0 0 255
-1.01867 0.444828 -0.800914 0 0 255
-1.13718 0.353478 -0.373634 0 0 255
-1.20847 0.191449 -0.246928 0 0 255
-0.930224 0.385813 -1.27472 0 0 255
-1.18135 0.441762 -0.0653999 0 0 255
-1.26352 0.253452 0.0787191 0 0 255
-1.12174 0.533347 -0.224744 0 0 255
-1.08237 0.501841 -0.442027 0 0 255
-1.11376 0.297324 -0.548444 0 0 255
-0.857282 0.39401 -1.59621 0 0 255
-1.18556 0.260909 -0.266474 0 0 255
-1.26168 0.564402 0.449 0 0 255
-1.1153 0.334443 -0.496212 0 0 255
-1.15633 0.224554 -0.443563 0 0 255
-1.04838 0.373875 -0.752325 0 0 255
-1.25771 0.354674 0.175566 0 0 255
-1.12377 0.468009 -0.295078 0 0 255
-1.13344 0.500693 -0.211374 0 0 255
-0.90034 0.444437 -1.33914 0 0 255
-0.8538 0.406111 -1.5973 0 0 255
-0.925731 0.478943 -1.18174 0 0 255
-1.04944 0.265544 -0.8794 0 0 255
-1.35923 0.160723 0.400723 0 0 255
-1.27181 0.346944 0.230223 0 0 255
-0.957416 0.449034 -1.07417 0 0 255
-1.14735 0.231661 -0.475746 0 0 255
-0.800729 0.382339 -1.86742 0 0 255
-0.865521 0.361447 -1.59842 0 0 255
-1.07283 0.510637 -0.474694 0 0 255
-1.04008 0.453558 -0.693008 0 0 255
-1.28703 0.214686 0.138343 0 0 255
-1.28208 0.351331 0.282221 0 0 255
-1.01642 0.278911 -1.01317 0 0 255
-1.20647 0.254241 -0.179576 0 0 255
-1.06859 0.488865 -0.520441 0 0 255
-1.18773 0.296116 -0.213764 0 0 255
-1.05557 0.315625 -0.790594 0 0 255
-1.14845 0.487249 -0.159509 0 0 255
-1.08495 0.31488 -0.657952 0 0 255
-0.845287 0.362768 -1.68876 0 0 255
-1.26791 0.527046 0.431828 0 0 255
-1.22444 0.32485 -0.0119367 0 0 255
-1.05845 0.323562 -0.767809 0 0 255
-1.07664 0.354828 -0.647067 0 0 255
-1.2576 0.389195 0.217099 0 0 255
-1.21842 0.225342 -0.160472 0 0 255
-0.989439 0.438478 -0.9415 0 0 255
-1.27948 0.223945 0.115314 0 0 255
-1.31741 0.345108 0.435234 0 0 255
-1.3233 0.154572 0.229954 0 0 255
-0.84317 0.406746 -1.64484 0 0 255
-1.31009 0.262099 0.300861 0 0 255
-1.10978 0.344769 -0.508738 0 0 255
-1.32086 0.167704 0.234864 0 0 255
-1.30529 0.165062 0.160918 0 0 255
-0.981215 0.45748 -0.955734 0 0 255
-1.31614 0.201357 0.254383 0 0 255
-0.838143 0.461408 -1.60112 0 0 255
-1.26072 0.324844 0.152915 0 0 255
-1.13209 0.377009 -0.36811 0 0 255
-1.11925 0.334705 -0.477972 0 0 255
-0.787018 0.406015 -1.9009 0 0 255
-0.919763 0.329964 -1.39026 0 0 255
-0.700345 0.441169 -2.25197 0 0 255
-0.950769 0.416325 -1.14421 0 0 255
-0.980977 0.463565 -0.949409 0 0 255
-0.829682 0.36815 -1.75313 0 0 255
-1.07627 0.272024 -0.749619 0 0 255
-1.22168 0.424789 0.0972017 0 0 255
-1.27676 0.38297 0.296613 0 0 255
-1.24836 0.422451 0.215605 0 0 255
-0.841538 0.450636 -1.59881 0 0 255
-1.03912 0.447397 -0.704856 0 0 255
-1.07901 0.420398 -0.55649 0 0 255
-0.915955 0.321534 -1.41783 0 0 255
-0.909983 0.416365 -1.3295 0 0 255
-0.748204 0.42943 -2.04877 0 0 255
-0.834861 0.391542 -1.70111 0 0 255
-1.10957 0.416304 -0.422607 0 0 255
-1.02189 0.485493 -0.736807 0 0 255
-0.829797 0.427163 -1.68074 0 0 255
-1.08913 0.416516 -0.5152 0 0 255
-1.09137 0.278104 -0.673573 0 0 255
-1.08184 0.473118 -0.479416 0 0 255
-1.25503 0.445636 0.27415 0 0 255
-0.918013 0.423349 -1.28451 0 0 255
-0.825958 0.36762 -1.7707 0 0 255
-1.26722 0.263167 0.107358 0 0 255
-1.20271 0.490302 0.090759 0 0 255
-1.18036 0.407827 -0.111221 0 0 255
-1.04923 0.290158 -0.850391 0 0 255
-1.16295 0.44067 -0.150343 0 0 255
-1.24587 0.314024 0.0722458 0 0 255
-0.923877 0.429995 -1.24976 0 0 255
-1.20904 0.4469 0.0666996 0 0 255
-1.33309 0.217451 0.351043 0 0 255
-0.851391 0.406023 -1.60836 0 0 255
-1.33083 0.203573 0.323883 0 0 255
-1.25684 0.536108 0.392556 0 0 255
-0.870238 0.35566 -1.58403 0 0 255
-0.976917 0.498299 -0.925564 0 0 255
-0.864637 0.380186 -1.57962 0 0 255
-0.995897 0.445699 -0.903363 0 0 255
-1.21844 0.42862 0.0871426 0 0 255
-1.24434 0.340869 0.0980229 0 0 255
-1.05228 0.295999 -0.829428 0 0 255
-1.28975 0.330923 0.292265 0 0 255
-1.10918 0.511445 -0.308521 0 0 255
-1.11191 0.318686 -0.530806 0 0 255
-0.829244 0.437631 -1.67051 0 0 255
-1.10714 0.520926 -0.306234 0 0 255
-1.10037 0.42696 -0.451399 0 0 255
-1.31315 0.254495 0.305525 0 0 255
-0.917749 0.427356 -1.28083 0 0 255
-0.990684 0.350141 -1.04341 0 0 255
-1.24893 0.530666 0.349946 0 0 255
-1.04881 0.450554 -0.657014 0 0 255
-0.791711 0.415373 -1.86818 0 0 255
-1.12291 0.41771 -0.36026 0 0 255
-0.923292 0.444848 -1.23434 0 0 255
-0.817415 0.456992 -1.70069 0 0 255
-1.20251 0.567327 0.183669 0 0 255
-1.28578 0.187656 0.0997764 0 0 255
-1.24683 0.330767 0.0970028 0 0 255
-1.25574 0.423219 0.250086 0 0 255
-1.38293 0.11445 0.452121 0 0 255
-1.08346 0.331905 -0.643997 0 0 255
-1.15211 0.529036 -0.0920166 0 0 255
-1.1394 0.557639 -0.114926 0 0 255
-1.02023 0.497216 -0.730064 0 0 255
-1.02052 0.380042 -0.871424 0 0 255
-1.28729 0.421626 0.391533 0 0 255
-1.06 0.4427 -0.615718 0 0 255
-1.23274 0.2553 -0.0588989 0 0 255
-1.36484 0.127061 0.385247 0 0 255
-1.27978 0.277011 0.181314 0 0 255
-1.16742 0.321819 -0.274768 0 0 255
-1.27004 0.299122 0.163975 0 0 255
-1.11567 0.236225 -0.614127 0 0 255
-0.711803 0.426604 -2.21763 0 0 255
-1.16844 0.460803 -0.100853 0 0 255
-0.834775 0.473825 -1.60131 0 0 255
-1.33168 0.183574 0.303355 0 0 255
-1.25775 0.231434 0.0256784 0 0 255
-1.21139 0.506644 0.15012 0 0 255
-0.780962 0.39555 -1.94116 0 0 255
-1.28101 0.359215 0.286973 0 0 255
-1.13073 0.334991 -0.425454 0 0 255
-1.24692 0.415682 0.200832 0 0 255
-1.34459 0.19682 0.378146 0 0 255
-1.2187 0.539995 0.223969 0 0 255
-0.899838 0.333939 -1.47597 0 0 255
-0.873218 0.343908 -1.5848 0 0 255
-0.962729 0.382062 -1.13158 0 0 255
-1.26213 0.424939 0.281228 0 0 255
-0.951537 0.375494 -1.19043 0 0 255
-1.24503 0.190627 -0.0817933 0 0 255
-1.25865 0.255461 0.0590187 0 0 255
-0.73793 0.443807 -2.07796 0 0 255
-1.36622 0.152918 0.422992 0 0 255
-1.10437 0.297482 -0.590911 0 0 255
-1.26877 0.378442 0.254758 0 0 255
-0.962959 0.450124 -1.04766 0 0 255
-1.04879 0.510468 -0.584116 0 0 255
-1.16316 0.242599 -0.390556 0 0 255
-0.957381 0.309844 -1.24382 0 0 255
-0.921631 0.49143 -1.18517 0 0 255
-1.23049 0.439626 0.155303 0 0 255
-1.21133 0.420217 0.0446098 0 0 255
-1.12304 0.538691 -0.212334 0 0 255
-1.24111 0.449549 0.215644 0 0 255
-1.13634 0.438135 -0.274335 0 0 255
-1.3524 0.151849 0.35892 0 0 255
-1.15533 0.324796 -0.326074 0 0 255
-0.951752 0.384359 -1.17866 0 0 255
-1.07448 0.332547 -0.68404 0 0 255
-1.11942 0.429574 -0.36167 0 0 255
-1.26123 0.340682 0.174515 0 0 255
-1.04565 0.271816 -0.888982 0 0 255
-1.0574 0.394643 -0.686058 0 0 255
-0.851934 0.410929 -1.59991 0 0 255
-1.06587 0.388585 -0.65493 0 0 255
-1.26697 0.203561 0.0336574 0 0 255
-0.712583 0.438652 -2.19942 0 0 255
-1.33914 0.210057 0.369529 0 0 255
-1.32334 0.269903 0.370574 0 0 255
-0.988528 0.329725 -1.07806 0 0 255
-1.17089 0.524458 -0.0122333 0 0 255
-1.14287 0.405199 -0.284798 0 0 255
-1.00226 0.366335 -0.971091 0 0 255
-0.818603 0.422584 -1.73719 0 0 255
-1.14791 0.297094 -0.393525 0 0 255
-1.07178 0.489689 -0.504947 0 0 255
-1.01193 0.406757 -0.877942 0 0 255
-0.976983 0.397745 -1.04771 0 0 255
-1.04694 0.444681 -0.672646 0 0 255
-0.990062 0.307476 -1.09819 0 0 255
-1.21439 0.410753 0.0470036 0 0 255
-1.23955 0.266032 -0.0148771 0 0 255
-1.17412 0.271998 -0.304978 0 0 255
-0.714406 0.4362 -2.19412 0 0 255
-1.32625 0.317568 0.441875 0 0 255
-0.885356 0.396462 -1.46565 0 0 255
-0.988895 0.466302 -0.910092 0 0 255
-1.19265 0.506532 0.06483 0 0 255
-1.25651 0.442413 0.276973 0 0 255
-1.35317 0.224603 0.451007 0 0 255
-1.23782 0.203125 -0.0993548 0 0 255
-0.996561 0.315406 -1.059 0 0 255
-1.20797 0.499248 0.125556 0 0 255
-1.00639 0.361299 -0.95847 0 0 255
-0.782574 0.457747 -1.8581 0 0 255
-1.19506 0.222057 -0.270601 0 0 255
-0.829245 0.412414 -1.70121 0 0 255
-0.959372 0.413695 -1.10831 0 0 255
-1.24262 0.469407 0.246716 0 0 255
-1.01897 0.504217 -0.72725 0 0 255
-0.698747 0.151049 -2.6125 0 0 255
-0.757724 -0.0558095 -2.59636 0 0 255
-0.705055 0.126128 -2.61417 0 0 255
-0.662221 0.287303 -2.61258 0 0 255
-0.740237 0.00180982 -2.60567 0 0 255
-0.731667 0.0785559 -2.55118 0 0 255
-0.709896 0.129416 -2.58818 0 0 255
-0.770168 -0.0455855 -2.52737 0 0 255
-0.750195 0.0142961 -2.54522 0 0 255
-0.705959 0.149624 -2.58147 0 0 255
-0.730896 0.0471494 -2.59292 0 0 255
-0.679857 0.241382 -2.58836 0 0 255
-0.680087 0.234017 -2.59628 0 0 255
-0.67655 0.247794 -2.59558 0 0 255
-0.670928 0.270481 -2.5935 0 0 255
-0.670106 0.315382 -2.54256 0 0 255
-0.637939 0.424729 -2.55559 0 0 255
-0.70186 0.204634 -2.53311 0 0 255
-0.652987 0.355996 -2.5709 0 0 255
-0.689855 0.225862 -2.56182 0 0 255
-0.67145 0.314561 -2.53745 0 0 255
-0.646518 0.382992 -2.56743 0 0 255
-0.688253 0.228839 -2.56547 0 0 255
-0.682282 0.249864 -2.56701 0 0 255
-0.627633 0.380477 -2.65631 0 0 255
-0.665251 0.235072 -2.66242 0 0 255
-0.72854 -0.0164001 -2.68101 0 0 255
-0.662864 0.241 -2.66604 0 0 255
-0.61329 0.42298 -2.66972 0 0 255
-0.73996 -0.0540612 -2.67497 0 0 255
-0.725365 0.0105443 -2.66263 0 0 255
-0.708675 0.0672825 -2.66939 0 0 255
-0.750558 -0.0912981 -2.67215 0 0 255
-0.633698 0.361185 -2.65224 0 0 255
-0.729751 0.0207389 -2.63026 0 0 255
-0.758079 -0.0925768 -2.63951 0 0 255
-0.708743 0.0742779 -2.66056 0 0 255
-0.631215 0.371834 -2.65056 0 0 255
-0.675577 0.198917 -2.65951 0 0 255
-0.732266 0.0127187 -2.6286 0 0 255
-0.619789 0.443301 -2.61546 0 0 255
-0.673205 0.238464 -2.62213 0 0 255
-0.624825 0.402154 -2.64267 0 0 255
-0.695997 0.151819 -2.62405 0 0 255
-0.603742 0.425197 -2.71041 0 0 255
-0.598618 0.44022 -2.7154 0 0 255
-0.592274 0.478037 -2.69817 0 0 255
-0.598904 0.455463 -2.69553 0 0 255
-0.672298 0.167553 -2.71258 0 0 255
-0.611938 0.414572 -2.68608 0 0 255
-0.700866 0.0622095 -2.71102 0 0 255
-0.744121 -0.0797034 -2.68729 0 0 255
-0.742865 -0.0759074 -2.68837 0 0 255
-0.727544 -0.0248341 -2.6958 0 0 255
-0.688526 0.127239 -2.68793 0 0 255
-0.748484 -0.124147 -2.72155 0 0 255
-0.752992 -0.137938 -2.71786 0 0 255
-0.74845 -0.116213 -2.71205 0 0 255
-0.475468 0.450787 -2.54061 0 0 255
-0.40191 0.365733 -2.38909 0 0 255
-0.457161 0.452093 -2.5127 0 0 255
-0.416865 0.124403 -2.30717 0 0 255
-0.383295 0.339163 -2.34855 0 0 255
-0.373382 0.29425 -2.31355 0 0 255
-0.441229 0.185511 -2.37171 0 0 255
-0.534522 0.426202 -2.62177 0 0 255
-0.372751 0.283106 -2.30772 0 0 255
-0.409559 0.445344 -2.4357 0 0 255
-0.473361 0.301716 -2.47235 0 0 255
-0.499406 0.361951 -2.53913 0 0 255
-0.406699 0.278615 -2.35857 0 0 255
-0.404942 0.290678 -2.3611 0 0 255
-0.451309 0.410474 -2.48545 0 0 255
-0.404395 0.441595 -2.42603 0 0 255
-0.487472 0.456362 -2.56172 0 0 255
-0.335556 0.443722 -2.31986 0 0 255
-0.407562 0.292601 -2.36601 0 0 255
-0.450982 0.423759 -2.49073 0 0 255
-0.465561 0.466023 -2.53184 0 0 255
-0.487981 0.358183 -2.51971 0 0 255
-0.39022 0.198215 -2.29789 0 0 255
-0.416519 0.339131 -2.40023 0 0 255
-0.36892 0.269581 -2.29586 0 0 255
-0.376799 0.406426 -2.36777 0 0 255
-0.36689 0.27898 -2.2968 0 0 255
-0.370796 0.276489 -2.30179 0 0 255
-0.468652 0.38275 -2.50035 0 0 255
-0.418867 0.247197 -2.36381 0 0 255
-0.483853 0.486956 -2.56942 0 0 255
-0.466002 0.331306 -2.4738 0 0 255
-0.487901 0.39053 -2.53369 0 0 255
-0.407694 0.311417 -2.37442 0 0 255
-0.484984 0.405361 -2.53561 0 0 255
-0.397463 0.364615 -2.38169 0 0 255
-0.394444 0.312381 -2.35423 0 0 255
-0.410597 0.460107 -2.44375 0 0 255
-0.398845 0.256542 -2.33673 0 0 255
-0.356487 0.400059 -2.33339 0 0 255
-0.529717 0.475009 -2.63557 0 0 255
-0.548718 0.501152 -2.67652 0 0 255
-0.43965 0.196221 -2.37392 0 0 255
-0.386188 0.258567 -2.31792 0 0 255
-0.559515 0.314623 -2.61201 0 0 255
-0.60887 0.271147 -2.66985 0 0 255
-0.583811 0.284169 -2.63654 0 0 255
-0.483751 0.142371 -2.41906 0 0 255
-0.536379 0.271921 -2.55741 0 0 255
-0.475046 0.15418 -2.41066 0 0 255
-0.586902 0.327766 -2.66035 0 0 255
-0.459415 0.162512 -2.38998 0 0 255
-0.480823 0.164348 -2.42408 0 0 255
-0.575718 0.2257 -2.59846 0 0 255
-0.50257 0.306319 -2.5198 0 0 255
-0.503417 0.266008 -2.50355 0 0 255
-0.533111 0.364673 -2.59275 0 0 255
-0.481448 0.232408 -2.45472 0 0 255
-0.529946 0.199975 -2.51604 0 0 255
-0.548487 0.212838 -2.55049 0 0 255
-0.487594 0.256297 -2.4747 0 0 255
-0.650935 0.189501 -2.6997 0 0 255
-0.589805 0.267674 -2.63867 0 0 255
-0.542466 0.360447 -2.60546 0 0 255
-0.524378 0.371974 -2.58235 0 0 255
-0.575108 0.242777 -2.60495 0 0 255
-0.538568 0.303992 -2.57479 0 0 255
-0.565017 0.461153 -2.68445 0 0 255
-0.598411 0.406758 -2.71269 0 0 255
-0.541358 0.169536 -2.52052 0 0 255
-0.600467 0.213177 -2.6315 0 0 255
-0.577934 0.331745 -2.64813 0 0 255
-0.605368 0.261321 -2.66011 0 0 255
-0.570271 0.335019 -2.63764 0 0 255
-0.577407 0.20777 -2.59327 0 0 255
-0.464424 0.195529 -2.41216 0 0 255
-0.566556 0.263505 -2.60068 0 0 255
-0.564382 0.45441 -2.68052 0 0 255
-0.59477 0.311071 -2.66531 0 0 255
-0.538969 0.357579 -2.59877 0 0 255
-0.533431 0.334336 -2.58003 0 0 255
-0.549107 0.287526 -2.58401 0 0 255
-0.635269 0.223843 -2.6903 0 0 255
-0.614827 0.18907 -2.64333 0 0 255
-0.536636 0.404183 -2.61546 0 0 255
-0.652343 0.200214 -2.70656 0 0 255
-0.567295 0.198902 -2.57367 0 0 255
-0.501143 0.271536 -2.50242 0 0 255
-0.495631 -0.00720024 -2.37725 0 0 255
-0.563483 -0.0595216 -2.46251 0 0 255
-0.464784 -0.0111145 -2.3274 0 0 255
-0.476389 0.0648392 -2.37598 0 0 255
-0.537666 -0.0862637 -2.41139 0 0 255
-0.497177 0.00542079 -2.38473 0 0 255
-0.445667 0.0091948 -2.30561 0 0 255
-0.494567 -0.115928 -2.33206 0 0 255
-0.448767 0.0208103 -2.31511 0 0 255
-0.578704 0.0267782 -2.52089 0 0 255
-0.47294 0.124721 -2.39455 0 0 255
-0.486349 -0.0107359 -2.36131 0 0 255
-0.540586 0.097821 -2.48967 0 0 255
-0.503318 -0.195811 -2.31377 0 0 255
-0.513037 0.0030271 -2.40859 0 0 255
-0.640306 0.117256 -2.65354 0 0 255
-0.474951 0.0912895 -2.38432 0 0 255
-0.564218 0.070901 -2.51588 0 0 255
-0.628844 0.085711 -2.62297 0 0 255
-0.626246 0.0839966 -2.61821 0 0 255
-0.528528 -0.0379044 -2.41645 0 0 255
-0.513044 0.0215415 -2.41602 0 0 255
-0.517568 0.072019 -2.44331 0 0 255
-0.489759 0.0945486 -2.4088 0 0 255
-0.592926 -0.00402939 -2.53081 0 0 255
-0.505226 -0.184237 -2.32139 0 0 255
-0.49877 -0.111018 -2.3406 0 0 255
-0.503404 -0.058431 -2.36891 0 0 255
-0.439233 0.0847578 -2.32579 0 0 255
-0.584228 0.149399 -2.57863 0 0 255
-0.441857 0.0365396 -2.31059 0 0 255
-0.437485 0.114537 -2.33498 0 0 255
-0.454223 0.114642 -2.36122 0 0 255
-0.627658 0.10432 -2.62856 0 0 255
-0.538189 -0.0173053 -2.43982 0 0 255
-0.573756 0.0640076 -2.52805 0 0 255
-0.524072 -0.098833 -2.38508 0 0 255
-0.655243 0.154023 -2.69164 0 0 255
-0.492197 -0.1773 -2.30378 0 0 255
-0.62418 0.139384 -2.63715 0 0 255
-0.514095 -0.137339 -2.35405 0 0 255
-0.443319 0.0463159 -2.3168 0 0 255
-0.495593 0.0987968 -2.41963 0 0 255
-0.520714 -0.145518 -2.36114 0 0 255
-0.449636 0.00789397 -2.3113 0 0 255
-0.699039 -0.0795871 -2.66666 0 0 255
-0.642211 0.0370175 -2.62439 0 0 255
-0.655923 -0.150563 -2.57076 0 0 255
-0.650439 -0.0321139 -2.6096 0 0 255
-0.602719 -0.0613901 -2.52318 0 0 255
-0.695668 -0.0232095 -2.68396 0 0 255
-0.672074 -0.0281369 -2.64505 0 0 255
-0.581055 -0.10807 -2.47058 0 0 255
-0.624352 -0.0330406 -2.56839 0 0 255
-0.731489 -0.102054 -2.70846 0 0 255
-0.655546 0.00291144 -2.63161 0 0 255
-0.702495 -0.10703 -2.66109 0 0 255
-0.67853 0.116909 -2.71323 0 0 255
-0.670231 -0.116623 -2.60674 0 0 255
-0.696053 0.0550388 -2.71589 0 0 255
-0.647396 0.0133207 -2.62302 0 0 255
-0.675845 0.131991 -2.71506 0 0 255
-0.659594 0.111505 -2.68142 0 0 255
-0.634896 -0.148794 -2.53855 0 0 255
-0.595959 -0.122665 -2.48807 0 0 255
-0.661246 -0.10659 -2.5967 0 0 255
-0.619524 -0.162806 -2.50888 0 0 255
-0.663442 0.00735576 -2.64575 0 0 255
-0.666931 0.132728 -2.70141 0 0 255
-0.724393 -0.057349 -2.71525 0 0 255
-0.594437 -0.0436599 -2.51731 0 0 255
-0.723903 -0.1546 -2.67555 0 0 255
-0.711934 0.00354839 -2.72013 0 0 255
-0.605106 0.0208911 -2.55986 0 0 255
-0.673869 0.00867393 -2.6626 0 0 255
-0.59157 -0.0599258 -2.50631 0 0 255
-0.590176 -0.176973 -2.45727 0 0 255
-0.653168 -0.0673971 -2.59974 0 0 255
-0.655208 -0.00267288 -2.62885 0 0 255
-0.675488 -0.108358 -2.61828 0 0 255
-0.62668 -0.108063 -2.542 0 0 255
-0.617457 0.0362889 -2.58536 0 0 255
-0.669817 0.0936139 -2.69026 0 0 255
-0.681712 0.0873525 -2.70638 0 0 255
-0.623746 -0.0570079 -2.55785 0 0 255
-0.622784 -0.154825 -2.51718 0 0 255
-0.716266 -0.0150811 -2.71945 0 0 255
-0.629581 0.0209652 -2.5982 0 0 255
-0.717728 -0.102539 -2.68673 0 0 255
-0.283325 0.380962 -2.21609 0 0 255
-0.196694 0.309087 -2.05985 0 0 255
-0.110564 0.365204 -1.95685 0 0 255
-0.224861 0.31332 -2.1028 0 0 255
-0.24467 0.332556 -2.13967 0 0 255
-0.118462 0.224986 -1.91087 0 0 255
-0.111626 0.195154 -1.88863 0 0 255
-0.265523 0.414436 -2.20378 0 0 255
-0.232823 0.419005 -2.15781 0 0 255
-0.140236 0.362113 -1.99899 0 0 255
-0.26706 0.394494 -2.19785 0 0 255
-0.131947 0.172801 -1.90919 0 0 255
-0.089747 0.359127 -1.92389 0 0 255
-0.144086 0.129702 -1.90926 0 0 255
-0.282223 0.369201 -2.20966 0 0 255
-0.190226 0.369572 -2.0752 0 0 255
-0.142004 0.27436 -1.96557 0 0 255
-0.164909 0.402502 -2.05167 0 0 255
-0.186648 0.345099 -2.05992 0 0 255
-0.165128 0.214326 -1.97478 0 0 255
-0.19312 0.162241 -1.99436 0 0 255
-0.151131 0.136894 -1.92252 0 0 255
-0.106487 0.184612 -1.87678 0 0 255
-0.165852 0.255685 -1.99281 0 0 255
-0.18341 0.409593 -2.08165 0 0 255
-0.178193 0.344383 -2.04726 0 0 255
-0.167348 0.397567 -2.05321 0 0 255
-0.280688 0.380427 -2.21202 0 0 255
-0.153152 0.183533 -1.94462 0 0 255
-0.247872 0.378968 -2.1634 0 0 255
-0.179902 0.297236 -2.03041 0 0 255
-0.247193 0.307205 -2.13296 0 0 255
-0.241668 0.354856 -2.14443 0 0 255
-0.150831 0.284259 -1.98255 0 0 255
-0.191476 0.407779 -2.09271 0 0 255
-0.150011 0.14087 -1.92251 0 0 255
-0.241467 0.270954 -2.10971 0 0 255
-0.137148 0.306099 -1.97149 0 0 255
-0.251043 0.369075 -2.16398 0 0 255
-0.107044 0.209211 -1.88769 0 0 255
-0.212451 0.347004 -2.09846 0 0 255
-0.183769 0.141606 -1.97221 0 0 255
-0.157204 0.30952 -2.00224 0 0 255
-0.185561 0.159042 -1.98199 0 0 255
-0.175076 0.207965 -1.98672 0 0 255
-0.106668 0.172685 -1.87215 0 0 255
-0.365485 0.103111 -2.22238 0 0 255
-0.321468 0.0966827 -2.15532 0 0 255
-0.353875 0.192179 -2.24192 0 0 255
-0.264186 0.244936 -2.13229 0 0 255
-0.354846 0.122429 -2.21473 0 0 255
-0.282477 0.20483 -2.14261 0 0 255
-0.258591 0.2852 -2.14061 0 0 255
-0.272473 0.162621 -2.11066 0 0 255
-0.374469 0.174523 -2.26482 0 0 255
-0.297247 0.108135 -2.12457 0 0 255
-0.341937 0.286181 -2.263 0 0 255
-0.220977 0.116903 -2.01654 0 0 255
-0.305221 0.248721 -2.1939 0 0 255
-0.279906 0.306491 -2.18054 0 0 255
-0.346915 0.318244 -2.28344 0 0 255
-0.279322 0.191008 -2.13232 0 0 255
-0.348462 0.16918 -2.22456 0 0 255
-0.282029 0.213449 -2.14549 0 0 255
-0.233293 0.0820272 -2.02026 0 0 255
-0.306379 0.091643 -2.13117 0 0 255
-0.364628 0.24985 -2.28131 0 0 255
-0.319067 0.148114 -2.1729 0 0 255
-0.183929 0.101789 -1.95611 0 0 255
-0.285301 0.181621 -2.13722 0 0 255
-0.26373 0.265146 -2.13991 0 0 255
-0.287499 0.348476 -2.20888 0 0 255
-0.207033 0.0753983 -1.9791 0 0 255
-0.300595 0.164027 -2.15239 0 0 255
-0.272933 0.125091 -2.09594 0 0 255
-0.318595 0.359988 -2.25911 0 0 255
-0.336777 0.312577 -2.26628 0 0 255
-0.184789 0.0801892 -1.94851 0 0 255
-0.243732 0.207739 -2.0871 0 0 255
-0.372704 0.243536 -2.29054 0 0 255
-0.253346 0.178566 -2.0892 0 0 255
-0.229115 0.0603043 -2.00523 0 0 255
-0.279383 0.173045 -2.12504 0 0 255
-0.235767 0.176883 -2.06278 0 0 255
-0.239115 0.254482 -2.09951 0 0 255
-0.301602 0.257921 -2.19238 0 0 255
-0.289971 0.327586 -2.20393 0 0 255
-0.297978 0.137291 -2.1376 0 0 255
-0.367244 0.154526 -2.24604 0 0 255
-0.368171 0.248383 -2.28589 0 0 255
-0.346837 0.0969364 -2.19255 0 0 255
-0.250486 -0.126215 -1.96649 0 0 255
-0.269021 0.0469901 -2.05896 0 0 255
-0.194344 0.00453068 -1.93301 0 0 255
-0.28149 -0.00899377 -2.05626 0 0 255
-0.301173 -0.0168332 -2.08229 0 0 255
-0.192777 0.0107272 -1.93304 0 0 255
-0.217446 0.0118223 -1.96978 0 0 255
-0.282967 -0.183342 -1.99282 0 0 255
-0.350453 -0.013162 -2.15625 0 0 255
-0.2434 0.00528802 -2.00554 0 0 255
-0.254715 -0.199352 -1.94519 0 0 255
-0.157491 -0.00182074 -1.87635 0 0 255
-0.202325 -0.103414 -1.90414 0 0 255
-0.365904 0.0632863 -2.20777 0 0 255
-0.322378 0.00522904 -2.12183 0 0 255
-0.293419 -0.0980784 -2.0403 0 0 255
-0.270405 -0.20266 -1.96705 0 0 255
-0.248158 -0.138396 -1.95848 0 0 255
-0.197476 -0.00417556 -1.93435 0 0 255
-0.319586 0.0685333 -2.14154 0 0 255
-0.285128 -0.0611424 -2.04199 0 0 255
-0.291564 -0.129099 -2.0259 0 0 255
-0.157144 0.0107745 -1.88058 0 0 255
-0.267724 -0.0912208 -2.00504 0 0 255
-0.291883 -0.0468116 -2.05733 0 0 255
-0.267542 -0.145274 -1.98443 0 0 255
-0.358171 0.0576761 -2.19427 0 0 255
-0.205525 -0.0129952 -1.94288 0 0 255
-0.248988 0.00421483 -2.01337 0 0 255
-0.197368 -0.00936286 -1.93224 0 0 255
-0.196421 -0.00735321 -1.9316 0 0 255
-0.240565 -0.0853951 -1.96724 0 0 255
-0.26202 -0.0883288 -1.99773 0 0 255
-0.268115 0.0345345 -2.05294 0 0 255
-0.316587 -0.0375143 -2.09721 0 0 255
-0.223061 -0.244825 -1.88146 0 0 255
-0.261981 -0.150435 -1.9743 0 0 255
-0.165075 0.0127442 -1.893 0 0 255
-0.379954 0.0448028 -2.22151 0 0 255
-0.184087 -0.0113787 -1.91192 0 0 255
-0.327482 0.0575108 -2.14902 0 0 255
-0.317268 0.0351015 -2.12554 0 0 255
-0.294068 0.0141982 -2.08351 0 0 255
-0.265078 0.0668328 -2.06063 0 0 255
-0.235732 -0.225775 -1.90729 0 0 255
-0.377203 0.0115603 -2.20494 0 0 255
-0.430267 -0.200056 -2.2034 0 0 255
-0.38706 -0.253251 -2.11976 0 0 255
-0.350322 -0.190373 -2.08934 0 0 255
-0.424134 -0.0511162 -2.25044 0 0 255
-0.382212 -0.184037 -2.13868 0 0 255
-0.328434 -0.20616 -2.05117 0 0 255
-0.360988 -0.0364178 -2.16301 0 0 255
-0.393607 -0.110577 -2.18311 0 0 255
-0.410886 0.0818022 -2.28098 0 0 255
-0.428051 -0.146232 -2.2204 0 0 255
-0.341359 -0.100013 -2.11016 0 0 255
-0.405262 -0.0266755 -2.23186 0 0 255
-0.400484 -0.0863588 -2.20235 0 0 255
-0.380701 -0.00083727 -2.20543 0 0 255
-0.392548 0.0573391 -2.24477 0 0 255
-0.394476 -0.0114346 -2.22172 0 0 255
-0.351306 -0.260322 -2.06446 0 0 255
-0.264034 -0.281562 -1.92797 0 0 255
-0.277934 -0.229431 -1.96806 0 0 255
-0.354067 -0.225537 -2.08162 0 0 255
-0.339749 -0.125786 -2.09809 0 0 255
-0.452842 -0.167285 -2.24897 0 0 255
-0.345066 -0.247769 -2.05999 0 0 255
-0.395483 0.0531989 -2.24753 0 0 255
-0.396731 -0.0521933 -2.20969 0 0 255
-0.319023 -0.22759 -2.02925 0 0 255
-0.404654 -0.177854 -2.17405 0 0 255
-0.340523 -0.201461 -2.07074 0 0 255
-0.341593 -0.186344 -2.07801 0 0 255
-0.405008 0.0434545 -2.25789 0 0 255
-0.46602 -0.105232 -2.29174 0 0 255
-0.281106 -0.195647 -1.98545 0 0 255
-0.392557 -0.191619 -2.15105 0 0 255
-0.406483 -0.255577 -2.14748 0 0 255
-0.333055 -0.214956 -2.05466 0 0 255
-0.39137 -0.216556 -2.13992 0 0 255
-0.42606 -0.114921 -2.22926 0 0 255
-0.320534 -0.19573 -2.04347 0 0 255
-0.399737 -0.119998 -2.18859 0 0 255
-0.339064 -0.133977 -2.094 0 0 255
-0.31711 -0.109375 -2.07094 0 0 255
-0.286634 -0.204449 -1.99028 0 0 255
-0.358016 -0.26993 -2.07072 0 0 255
-0.361558 -0.0765569 -2.14873 0 0 255
0.187877 0.138961 -1.45289 0 0 255
0.12722 0.25716 -1.58222 0 0 255
0.0376512 0.230994 -1.69553 0 0 255
0.0839664 0.190344 -1.61597 0 0 255
0.0385487 0.268241 -1.7087 0 0 255
0.125878 0.19669 -1.56067 0 0 255
0.114911 0.042098 -1.51597 0 0 255
0.118033 0.120963 -1.54218 0 0 255
0.180981 0.153572 -1.46805 0 0 255
0.0659648 0.228915 -1.6557 0 0 255
0.141665 0.131495 -1.51369 0 0 255
0.080888 0.298168 -1.66193 0 0 255
0.0977566 0.314411 -1.64497 0 0 255
0.107423 0.289152 -1.62188 0 0 255
0.124499 0.315129 -1.60839 0 0 255
0.0789285 0.25 -1.646 0 0 255
0.132489 0.0895593 -1.51011 0 0 255
0.197309 0.227053 -1.47398 0 0 255
0.16556 0.157515 -1.49083 0 0 255
0.121055 0.17614 -1.55937 0 0 255
-0.0097015 0.355718 -1.80904 0 0 255
0.200482 0.28736 -1.49294 0 0 255
0.0832806 0.24146 -1.6367 0 0 255
0.141222 0.217239 -1.54748 0 0 255
0.138612 -0.000832381 -1.4667 0 0 255
0.125375 -0.00511691 -1.48328 0 0 255
0.0828196 0.283127 -1.65345 0 0 255
0.0671661 0.195434 -1.64109 0 0 255
0.172535 0.132613 -1.47158 0 0 255
0.159465 0.228972 -1.52687 0 0 255
0.133424 0.0191578 -1.48158 0 0 255
0.171517 0.225565 -1.50895 0 0 255
0.136671 -0.00230434 -1.4688 0 0 255
0.0394291 0.242139 -1.69739 0 0 255
0.0449294 0.227919 -1.68431 0 0 255
0.13917 0.207475 -1.54653 0 0 255
0.186059 0.128088 -1.45119 0 0 255
0.191083 0.185963 -1.46666 0 0 255
-0.0183714 0.344921 -1.81681 0 0 255
0.178291 0.318272 -1.53548 0 0 255
0.116101 0.295092 -1.61222 0 0 255
0.0172212 0.312361 -1.75516 0 0 255
0.15239 0.267156 -1.5514 0 0 255
0.0687606 0.185138 -1.63491 0 0 255
0.152151 0.0577446 -1.4707 0 0 255
-0.0458513 0.0970773 -1.75883 0 0 255
-0.0759203 0.188007 -1.83544 0 0 255
-0.051335 0.277548 -1.83619 0 0 255
0.00499084 0.248908 -1.74747 0 0 255
-0.0597792 0.182661 -1.81113 0 0 255
-0.036659 0.341045 -1.84051 0 0 255
0.00115155 0.259439 -1.75683 0 0 255
0.10076 0.0207761 -1.52723 0 0 255
-0.0344692 0.3489 -1.84053 0 0 255
0.00292134 0.114129 -1.69819 0 0 255
0.0879805 0.0308931 -1.54875 0 0 255
0.0780961 0.0511755 -1.57022 0 0 255
0.0666256 -0.000198252 -1.56617 0 0 255
-0.0783186 0.0243 -1.77544 0 0 255
0.0911837 0.00927834 -1.53598 0 0 255
-0.0764126 0.122102 -1.81063 0 0 255
-0.0179433 0.110909 -1.72571 0 0 255
-0.0225586 0.0215119 -1.6975 0 0 255
0.0239733 -0.00402483 -1.62348 0 0 255
0.0253083 0.131915 -1.67421 0 0 255
0.0524435 0.127528 -1.63511 0 0 255
-0.0521301 0.149033 -1.78758 0 0 255
-0.10813 0.0737175 -1.83564 0 0 255
0.00966261 0.0576847 -1.66707 0 0 255
0.0638635 0.112983 -1.61375 0 0 255
-0.0634685 0.155919 -1.80587 0 0 255
-0.120685 0.0331335 -1.83725 0 0 255
-0.0417593 0.336104 -1.84563 0 0 255
-0.0660778 0.0674837 -1.77526 0 0 255
0.0876819 0.0730554 -1.56547 0 0 255
-0.105183 0.158274 -1.86428 0 0 255
-0.100302 0.0437417 -1.81326 0 0 255
-0.0340496 0.129095 -1.75494 0 0 255
0.0408408 0.035086 -1.61536 0 0 255
-0.0147034 0.186926 -1.75064 0 0 255
-0.0542858 0.100929 -1.77195 0 0 255
-0.110591 0.109542 -1.85289 0 0 255
-0.0590345 0.194985 -1.81487 0 0 255
-0.0152786 0.00773537 -1.68213 0 0 255
-0.106107 0.0825784 -1.83628 0 0 255
-0.000871062 0.0164672 -1.66565 0 0 255
-0.0124495 0.0342202 -1.68848 0 0 255
-0.0547924 0.0396253 -1.74893 0 0 255
-0.117903 0.099609 -1.85913 0 0 255
0.0681142 0.0783133 -1.59448 0 0 255
0.0376393 -0.146702 -1.55387 0 0 255
0.0268475 -0.330633 -1.50372 0 0 255
0.0205223 -0.31903 -1.5166 0 0 255
0.00658498 -0.274104 -1.55184 0 0 255
-0.0203434 -0.0542128 -1.66705 0 0 255
0.0324245 -0.0863961 -1.58246 0 0 255
0.0135197 -0.13162 -1.59267 0 0 255
-0.0945775 -0.00302539 -1.78815 0 0 255
-0.00789631 -0.110881 -1.62972 0 0 255
0.0679154 -0.190865 -1.49623 0 0 255
0.0330844 -0.0139543 -1.60719 0 0 255
-0.0423369 -0.104104 -1.67989 0 0 255
-0.0533156 -0.0840288 -1.70223 0 0 255
0.0086156 -0.0295483 -1.63561 0 0 255
0.00553986 -0.151058 -1.59685 0 0 255
0.111564 -0.0944465 -1.46982 0 0 255
0.0082077 -0.0743393 -1.62032 0 0 255
-0.0489705 -0.143483 -1.67515 0 0 255
0.0741879 -0.180773 -1.49111 0 0 255
0.0511508 -0.24184 -1.50144 0 0 255
0.0227479 -0.316244 -1.5145 0 0 255
0.109056 -0.123641 -1.46297 0 0 255
0.0823047 -0.0679292 -1.5198 0 0 255
0.029598 -0.0749719 -1.59042 0 0 255
-0.0429762 -0.162471 -1.66011 0 0 255
0.0973218 -0.0582071 -1.50241 0 0 255
0.0874312 -0.195655 -1.46747 0 0 255
0.0670388 -0.226624 -1.48479 0 0 255
-0.00901323 -0.123782 -1.6267 0 0 255
0.00655169 -0.0221769 -1.64108 0 0 255
0.0412525 -0.164797 -1.54245 0 0 255
-0.0507555 -0.148845 -1.67573 0 0 255
-0.0786437 -0.0397735 -1.75303 0 0 255
0.0367979 -0.187241 -1.54068 0 0 255
-0.0529759 -0.150363 -1.67827 0 0 255
0.0591618 -0.2827 -1.47586 0 0 255
-0.111769 -0.0221716 -1.80522 0 0 255
-0.0970907 -0.0346667 -1.78043 0 0 255
0.000772538 -0.103432 -1.62033 0 0 255
0.0472382 -0.369775 -1.46157 0 0 255
-0.0164447 -0.0621415 -1.65883 0 0 255
0.00403266 -0.00444331 -1.65086 0 0 255
0.0185235 -0.233592 -1.54962 0 0 255
0.0252656 -0.191231 -1.55527 0 0 255
-0.0576568 -0.140285 -1.68833 0 0 255
-0.00340318 -0.266571 -1.56836 0 0 255
-0.0425109 -0.274124 -1.61992 0 0 255
-0.00852667 -0.344135 -1.54799 0 0 255
-0.0113885 -0.269074 -1.57855 0 0 255
-0.0230722 -0.333771 -1.57184 0 0 255
-0.0430827 -0.291119 -1.6147 0 0 255
-0.172435 -0.13877 -1.84805 0 0 255
-0.0561361 -0.300177 -1.62959 0 0 255
-0.0524779 -0.229889 -1.64942 0 0 255
-0.134416 -0.285668 -1.7433 0 0 255
-0.119816 -0.152505 -1.77021 0 0 255
-0.151359 -0.108236 -1.82964 0 0 255
-0.107238 -0.233485 -1.72409 0 0 255
-0.137247 -0.178612 -1.78514 0 0 255
-0.14135 -0.159155 -1.79772 0 0 255
-0.103312 -0.200162 -1.73044 0 0 255
-0.141096 -0.0608516 -1.83219 0 0 255
-0.0486285 -0.306718 -1.61686 0 0 255
-0.0707297 -0.121594 -1.71309 0 0 255
-0.164096 -0.0615008 -1.86386 0 0 255
-0.182695 -0.231311 -1.8295 0 0 255
-0.0433396 -0.191853 -1.65021 0 0 255
-0.0679609 -0.199736 -1.68157 0 0 255
-0.183377 -0.259846 -1.82034 0 0 255
-0.0715348 -0.267132 -1.66265 0 0 255
-0.167849 -0.221344 -1.81245 0 0 255
-0.172384 -0.192322 -1.82901 0 0 255
-0.0711325 -0.159195 -1.70033 0 0 255
-0.216219 -0.278294 -1.85936 0 0 255
-0.13499 -0.248507 -1.75725 0 0 255
-0.114576 -0.0864807 -1.78633 0 0 255
-0.185766 -0.14127 -1.86566 0 0 255
-0.122369 -0.275055 -1.73035 0 0 255
-0.110689 -0.121153 -1.76866 0 0 255
-0.143321 -0.273991 -1.75978 0 0 255
-0.145245 -0.0698602 -1.83475 0 0 255
-0.131722 -0.0117098 -1.8366 0 0 255
-0.0841583 -0.200192 -1.70387 0 0 255
-0.0364988 -0.295132 -1.60414 0 0 255
0.00692666 -0.295275 -1.54387 0 0 255
-0.0784118 -0.301212 -1.66012 0 0 255
-0.121999 -0.242658 -1.74131 0 0 255
-0.167909 -0.236063 -1.80731 0 0 255
-0.0778006 -0.142261 -1.71557 0 0 255
-0.0947461 -0.312173 -1.67889 0 0 255
-0.123293 -0.220858 -1.75082 0 0 255
