ply
format ascii 1.0
comment Created by Open3D
element vertex 1355
property double x
property double y
property double z
property uchar red
property uchar green
property uchar blue
end_header
0.37902 -0.306381 1.28956 0 0 255
0.431025 -0.172623 1.27032 0 0 255
0.336574 -0.313482 1.33782 0 0 255
0.414382 -0.192859 1.28368 0 0 255
0.44586 -0.111489 1.27216 0 0 255
0.359852 -0.311515 1.31074 0 0 255
0.3195 -0.326734 1.35391 0 0 255
0.487142 0.0494 1.27434 0 0 255
0.327121 -0.329668 1.3439 0 0 255
0.344204 -0.351331 1.31666 0 0 255
0.453544 -0.0435318 1.28469 0 0 255
0.331959 -0.304672 1.34612 0 0 255
0.334538 -0.304571 1.34308 0 0 255
0.34993 -0.345595 1.31168 0 0 255
0.394091 -0.303663 1.27249 0 0 255
0.398601 -0.17061 1.30955 0 0 255
0.393258 -0.199586 1.30667 0 0 255
0.440751 -0.133227 1.27131 0 0 255
0.476353 0.0238547 1.27903 0 0 255
0.367018 -0.279986 1.31226 0 0 255
0.40708 -0.121994 1.31497 0 0 255
0.466201 -0.0418464 1.27016 0 0 255
0.478334 -0.00357372 1.26793 0 0 255
0.422726 -0.118321 1.29752 0 0 255
0.32953 -0.29952 1.35065 0 0 255
0.365366 -0.248151 1.32438 0 0 255
0.320181 -0.344605 1.3474 0 0 255
0.361921 -0.306757 1.30979 0 0 255
0.409403 -0.164108 1.29877 0 0 255
0.341298 -0.318429 1.33061 0 0 255
0.372604 -0.320722 1.29262 0 0 255
0.435988 -0.0854769 1.29221 0 0 255
0.436002 -0.12643 1.27913 0 0 255
0.462099 -0.0198646 1.28205 0 0 255
0.392764 -0.176014 1.31478 0 0 255
0.430074 -0.166733 1.27333 0 0 255
0.378135 -0.274265 1.30086 0 0 255
0.435444 -0.133596 1.27751 0 0 255
0.445244 -0.0539475 1.29124 0 0 255
0.350068 -0.268637 1.33606 0 0 255
0.378727 -0.253236 1.30686 0 0 255
0.378859 -0.252822 1.30683 0 0 255
0.392677 -0.273287 1.28386 0 0 255
0.352432 -0.323784 1.31566 0 0 255
0.386204 -0.264769 1.29428 0 0 255
0.437567 -0.123296 1.27827 0 0 255
0.441482 -0.0881738 1.28481 0 0 255
0.326678 -0.302896 1.35297 0 0 255
0.403825 -0.225336 1.28588 0 0 255
0.368429 -0.244122 1.32202 0 0 255
0.411377 -0.209374 1.28199 0 0 255
0.350416 -0.333613 1.31492 0 0 255
0.491708 0.0671867 1.27458 0 0 255
0.389007 -0.17836 1.3185 0 0 255
0.390918 -0.194257 1.31116 0 0 255
0.456797 -0.0604548 1.27542 0 0 255
0.474801 0.0240704 1.28095 0 0 255
0.415825 -0.205107 1.27805 0 0 255
0.427296 -0.153914 1.28073 0 0 255
0.386847 -0.18652 1.31847 0 0 255
0.384699 -0.268155 1.29499 0 0 255
0.452217 -0.0780336 1.27526 0 0 255
0.388428 -0.292653 1.28274 0 0 255
0.409793 -0.141086 1.30565 0 0 255
0.493029 0.0946039 1.28175 0 0 255
0.394511 -0.121892 1.32996 0 0 255
0.408523 -0.0246771 1.34428 0 0 255
0.4716 0.0600351 1.29623 0 0 255
0.403099 -0.0183723 1.35275 0 0 255
0.455376 0.0158678 1.30145 0 0 255
0.41414 -0.0281529 1.33649 0 0 255
0.384747 -0.0753053 1.35644 0 0 255
0.435434 -0.0253473 1.31204 0 0 255
0.410087 -0.0325911 1.3399 0 0 255
0.42897 -0.0250243 1.31984 0 0 255
0.499063 0.122428 1.28344 0 0 255
0.362491 -0.142724 1.36143 0 0 255
0.500294 0.1156 1.2798 0 0 255
0.458138 0.0658968 1.31412 0 0 255
0.373208 -0.171286 1.33956 0 0 255
0.469165 0.0333182 1.29061 0 0 255
0.447687 -0.027755 1.29669 0 0 255
0.413611 0.0284083 1.35516 0 0 255
0.404677 0.00490205 1.3583 0 0 255
0.45124 0.00175827 1.30187 0 0 255
0.455255 0.11464 1.33309 0 0 255
0.405985 -0.0989285 1.32363 0 0 255
0.439569 0.0180661 1.32097 0 0 255
0.433505 0.0110242 1.32594 0 0 255
0.337128 -0.270395 1.3509 0 0 255
0.443982 0.036436 1.32157 0 0 255
0.413096 0.0193144 1.35287 0 0 255
0.422419 0.0577983 1.35405 0 0 255
0.416556 -0.0393835 1.33003 0 0 255
0.388354 -0.0951279 1.34582 0 0 255
0.380356 -0.175545 1.3297 0 0 255
0.458196 0.0411484 1.30616 0 0 255
0.335219 -0.276507 1.35122 0 0 255
0.384474 -0.148536 1.33341 0 0 255
0.390978 -0.0735004 1.3496 0 0 255
0.477613 0.114409 1.30641 0 0 255
0.422498 0.0264774 1.34397 0 0 255
0.420971 -0.0355743 1.32599 0 0 255
0.361026 -0.150882 1.36057 0 0 255
0.433881 0.0406145 1.33493 0 0 255
0.400263 -0.106521 1.32801 0 0 255
0.390609 -0.106556 1.33949 0 0 255
0.493176 0.0919381 1.28072 0 0 255
0.502606 0.114352 1.27665 0 0 255
0.411209 -0.0172526 1.34346 0 0 255
0.430988 0.0677098 1.34701 0 0 255
0.451358 0.042311 1.31467 0 0 255
0.438589 0.0503976 1.33244 0 0 255
0.359336 -0.198641 1.34735 0 0 255
0.34652 -0.207471 1.35979 0 0 255
0.435791 0.0454146 1.33418 0 0 255
0.44815 0.0131035 1.30917 0 0 255
0.405306 -0.112964 1.31996 0 0 255
0.487677 0.0771487 1.28255 0 0 255
0.382456 -0.150068 1.33532 0 0 255
0.453967 0.00884782 1.30089 0 0 255
0.416317 0.0538001 1.36004 0 0 255
0.395078 -0.0380147 1.35603 0 0 255
0.471353 0.026338 1.28577 0 0 255
0.419226 0.0417945 1.35274 0 0 255
0.460374 0.0782819 1.31541 0 0 255
0.378605 -0.178747 1.33076 0 0 255
0.35413 -0.177808 1.36019 0 0 255
0.467035 0.0225035 1.28969 0 0 255
0.385584 -0.150876 1.33134 0 0 255
0.331126 -0.271248 1.35777 0 0 255
0.368871 -0.14018 1.35464 0 0 255
0.472524 0.0548437 1.29347 0 0 255
0.446976 -0.00818273 1.30378 0 0 255
0.474235 0.103756 1.30703 0 0 255
0.38621 -0.0695478 1.35653 0 0 255
0.436358 0.0677397 1.34063 0 0 255
0.46083 0.0479176 1.30518 0 0 255
0.450853 0.00494146 1.30335 0 0 255
0.38873 -0.15429 1.32651 0 0 255
0.360458 -0.162783 1.35745 0 0 255
0.311142 -0.212557 1.39195 0 0 255
0.32218 -0.178178 1.39025 0 0 255
0.249154 -0.29476 1.42931 0 0 255
0.316555 -0.168202 1.398 0 0 255
0.390377 -0.00834155 1.36904 0 0 255
0.420455 0.097676 1.36747 0 0 255
0.359611 -0.0860341 1.37834 0 0 255
0.384188 -0.0145381 1.37327 0 0 255
0.243892 -0.300041 1.4329 0 0 255
0.327975 -0.13225 1.39633 0 0 255
0.377888 -0.00902849 1.38054 0 0 255
0.39322 -0.0252445 1.36214 0 0 255
0.288744 -0.310936 1.38825 0 0 255
0.413251 0.0701375 1.36731 0 0 255
0.317372 -0.183517 1.3934 0 0 255
0.314809 -0.234435 1.38305 0 0 255
0.391371 0.0211049 1.37548 0 0 255
0.328188 -0.140373 1.3941 0 0 255
0.3281 -0.16949 1.38689 0 0 255
0.31023 -0.27789 1.37644 0 0 255
0.265677 -0.29688 1.41333 0 0 255
0.308504 -0.141049 1.41233 0 0 255
0.303914 -0.302879 1.37609 0 0 255
0.323591 -0.236939 1.37421 0 0 255
0.336814 -0.0941874 1.3976 0 0 255
0.416497 0.0767335 1.36593 0 0 255
0.234473 -0.306289 1.44014 0 0 255
0.335542 -0.180547 1.37716 0 0 255
0.39564 0.00239735 1.36681 0 0 255
0.376886 -0.0622257 1.36815 0 0 255
0.336647 -0.222198 1.3657 0 0 255
0.406046 0.0548487 1.37022 0 0 255
0.32849 -0.192323 1.3808 0 0 255
0.2644 -0.281945 1.41827 0 0 255
0.272477 -0.315159 1.4024 0 0 255
0.284737 -0.27382 1.40129 0 0 255
0.334944 -0.0891436 1.40061 0 0 255
0.370797 -0.025027 1.38316 0 0 255
0.290651 -0.311711 1.38627 0 0 255
0.387575 -0.0319497 1.36574 0 0 255
0.281048 -0.225657 1.4168 0 0 255
0.314979 -0.223898 1.38553 0 0 255
0.319565 -0.292552 1.36404 0 0 255
0.320606 -0.159905 1.39629 0 0 255
0.369429 -0.0212878 1.38538 0 0 255
0.306182 -0.296977 1.37545 0 0 255
0.269108 -0.227785 1.42743 0 0 255
0.333121 -0.235499 1.36566 0 0 255
0.301537 -0.311843 1.37606 0 0 255
0.393097 -0.0134528 1.36521 0 0 255
0.287072 -0.289177 1.39526 0 0 255
0.27401 -0.302074 1.40424 0 0 255
0.321045 -0.162948 1.39512 0 0 255
0.366907 -0.0914361 1.37016 0 0 255
0.304651 -0.274463 1.38252 0 0 255
0.339444 -0.197935 1.36916 0 0 255
0.28084 -0.259119 1.40862 0 0 255
0.350116 -0.0981179 1.38418 0 0 255
0.310742 -0.328989 1.36316 0 0 255
0.265485 -0.307379 1.41088 0 0 255
0.254131 -0.285264 1.42703 0 0 255
0.279328 -0.261167 1.40952 0 0 255
0.367711 -0.0576987 1.37786 0 0 255
0.34382 -0.205578 1.36315 0 0 255
0.246056 -0.301451 1.43053 0 0 255
0.330255 -0.252613 1.36405 0 0 255
0.307529 -0.245796 1.38701 0 0 255
0.297307 -0.300987 1.38274 0 0 255
0.390314 0.0264524 1.37781 0 0 255
0.374801 -0.0798408 1.36569 0 0 255
0.292155 -0.179596 1.41796 0 0 255
0.278419 -0.29753 1.40126 0 0 255
0.356062 -0.072467 1.38505 0 0 255
0.236942 -0.291852 1.44145 0 0 255
0.263369 -0.306046 1.41319 0 0 255
0.386926 0.00768473 1.37628 0 0 255
0.407277 0.0468376 1.36706 0 0 255
0.355353 0.11212 1.43195 0 0 255
0.319662 0.0357601 1.44619 0 0 255
0.267665 -0.192625 1.43759 0 0 255
0.364801 0.0932524 1.41839 0 0 255
0.381225 0.0762452 1.39878 0 0 255
0.246704 -0.256185 1.44126 0 0 255
0.402636 0.127676 1.39165 0 0 255
0.329666 -0.0319997 1.41986 0 0 255
0.336497 0.00739221 1.42334 0 0 255
0.349436 0.127715 1.44138 0 0 255
0.333283 -0.0273558 1.41764 0 0 255
0.337163 0.0966127 1.44507 0 0 255
0.333547 -0.0442649 1.41316 0 0 255
0.358944 0.0382545 1.41009 0 0 255
0.341878 0.0247035 1.42265 0 0 255
0.372962 0.073121 1.40572 0 0 255
0.369185 0.155344 1.42984 0 0 255
0.353983 0.146003 1.44172 0 0 255
0.307243 -0.0722419 1.43074 0 0 255
0.344081 -0.0421081 1.40386 0 0 255
0.362532 0.134556 1.43086 0 0 255
0.393207 0.100282 1.3936 0 0 255
0.392837 0.124984 1.40013 0 0 255
0.399219 0.140018 1.39793 0 0 255
0.412315 0.120338 1.38076 0 0 255
0.351343 0.142387 1.44328 0 0 255
0.27476 -0.195734 1.43018 0 0 255
0.344166 0.114363 1.44297 0 0 255
0.394697 0.0620751 1.38264 0 0 255
0.376531 0.121672 1.41454 0 0 255
0.312287 -0.0333683 1.43576 0 0 255
0.409112 0.114925 1.3824 0 0 255
0.32043 -0.0400063 1.42649 0 0 255
0.399777 0.123391 1.39325 0 0 255
0.356041 0.0758787 1.42223 0 0 255
0.358622 0.0695747 1.41824 0 0 255
0.265816 -0.205334 1.43613 0 0 255
0.362068 -0.0148594 1.39387 0 0 255
0.295126 -0.103088 1.43434 0 0 255
0.34365 -0.0605992 1.39963 0 0 255
0.372528 0.0125171 1.39095 0 0 255
0.350766 0.0892374 1.4305 0 0 255
0.379524 0.136188 1.41538 0 0 255
0.388691 0.119936 1.40274 0 0 255
0.258185 -0.215265 1.44078 0 0 255
0.336773 -0.0630181 1.40545 0 0 255
0.367812 0.071981 1.41025 0 0 255
0.317362 -0.0525135 1.42623 0 0 255
0.328732 -0.0510445 1.41596 0 0 255
0.373198 0.124872 1.41846 0 0 255
0.347195 0.123726 1.44248 0 0 255
0.300358 -0.0639877 1.43925 0 0 255
0.241902 -0.265319 1.44346 0 0 255
0.295469 -0.104597 1.43364 0 0 255
0.352129 0.134661 1.44061 0 0 255
0.33741 -0.0523542 1.40752 0 0 255
0.378132 0.0937138 1.40604 0 0 255
0.408302 0.0823341 1.37499 0 0 255
0.362611 0.0412778 1.40742 0 0 255
0.36319 0.105857 1.42305 0 0 255
0.360943 0.116194 1.42774 0 0 255
0.373207 0.120852 1.41745 0 0 255
0.379359 0.15002 1.419 0 0 255
0.413837 0.0952116 1.37304 0 0 255
0.261367 -0.208727 1.43944 0 0 255
0.343608 -0.0614624 1.39945 0 0 255
0.336773 -0.00419116 1.42018 0 0 255
0.305211 -0.0687418 1.43352 0 0 255
0.321308 0.024249 1.44176 0 0 255
0.387951 0.0738328 1.39189 0 0 255
0.308899 -0.0497716 1.43482 0 0 255
0.370922 0.152611 1.42754 0 0 255
0.36922 0.0897143 1.41337 0 0 255
0.404028 0.148333 1.39552 0 0 255
0.339647 -0.0557199 1.40459 0 0 255
0.367445 0.146948 1.42937 0 0 255
0.338496 -0.0222978 1.41404 0 0 255
0.224606 -0.241558 1.46152 0 0 255
0.306284 -0.00960562 1.44721 0 0 255
0.238222 -0.227433 1.45431 0 0 255
0.157611 -0.256058 1.50777 0 0 255
0.153183 -0.296817 1.50301 0 0 255
0.23312 -0.114892 1.48015 0 0 255
0.151585 -0.268723 1.5097 0 0 255
0.247507 -0.132448 1.46616 0 0 255
0.321628 0.0951134 1.45653 0 0 255
0.199426 -0.258016 1.47674 0 0 255
0.238191 -0.140148 1.47148 0 0 255
0.283962 -0.0624283 1.45319 0 0 255
0.249651 -0.0710782 1.47664 0 0 255
0.311165 0.0579554 1.4569 0 0 255
0.265637 -0.0854776 1.4621 0 0 255
0.263031 -0.0305314 1.4748 0 0 255
0.23963 -0.251634 1.44853 0 0 255
0.208395 -0.162122 1.489 0 0 255
0.255996 -0.0824645 1.46975 0 0 255
0.203619 -0.148542 1.49516 0 0 255
0.272286 -0.137152 1.44708 0 0 255
0.212008 -0.207858 1.47737 0 0 255
0.233486 -0.257762 1.45183 0 0 255
0.253758 -0.103578 1.46725 0 0 255
0.248824 -0.17484 1.45687 0 0 255
0.289479 0.00791008 1.46296 0 0 255
0.231027 -0.23737 1.45764 0 0 255
0.258214 -0.127934 1.4592 0 0 255
0.315514 0.0756053 1.45718 0 0 255
0.297719 0.00699168 1.45674 0 0 255
0.293972 0.0393948 1.46585 0 0 255
0.240473 -0.20711 1.45666 0 0 255
0.24362 -0.108187 1.47377 0 0 255
0.244176 -0.0916865 1.47661 0 0 255
0.187998 -0.247149 1.48725 0 0 255
0.256732 -0.125425 1.46078 0 0 255
0.208283 -0.234345 1.4749 0 0 255
0.257702 -0.117062 1.46171 0 0 255
0.224317 -0.27456 1.45525 0 0 255
0.311194 0.0683854 1.45893 0 0 255
0.225245 -0.246547 1.46007 0 0 255
0.175611 -0.213161 1.503 0 0 255
0.255405 -0.104907 1.46578 0 0 255
0.231635 -0.118373 1.48056 0 0 255
0.214106 -0.274336 1.46278 0 0 255
0.163379 -0.303268 1.49427 0 0 255
0.186518 -0.207444 1.49613 0 0 255
0.174786 -0.262166 1.49398 0 0 255
0.240521 -0.0721212 1.48313 0 0 255
0.236435 -0.173651 1.46618 0 0 255
0.218268 -0.113103 1.49139 0 0 255
0.228084 -0.287765 1.4499 0 0 255
0.273209 -0.0469264 1.46412 0 0 255
0.231736 -0.248785 1.45487 0 0 255
0.264968 -0.128391 1.45416 0 0 255
0.229913 -0.13779 1.47801 0 0 255
0.235826 -0.188011 1.46381 0 0 255
0.283367 -0.049233 1.45622 0 0 255
0.188651 -0.178581 1.50023 0 0 255
0.236544 -0.16814 1.46719 0 0 255
0.169034 -0.299216 1.49092 0 0 255
0.229016 -0.260659 1.45454 0 0 255
0.225647 -0.287401 1.45175 0 0 255
0.242931 -0.182612 1.45966 0 0 255
0.139249 -0.284704 1.5156 0 0 255
0.201954 -0.173444 1.49149 0 0 255
0.232875 -0.280918 1.44773 0 0 255
0.279142 -0.0132045 1.46639 0 0 255
0.245924 -0.112174 1.4713 0 0 255
0.251959 -0.0816183 1.47288 0 0 255
0.203085 -0.174785 1.4904 0 0 255
0.271202 -0.0942133 1.4563 0 0 255
0.202028 -0.160007 1.49408 0 0 255
0.325565 0.0628722 1.44731 0 0 255
0.185228 -0.303954 1.47812 0 0 255
0.272347 -0.101928 1.45395 0 0 255
0.200091 -0.311756 1.4657 0 0 255
0.251356 0.0853124 1.5061 0 0 255
0.258128 0.0208917 1.48849 0 0 255
0.256136 0.106532 1.50676 0 0 255
0.274809 0.00440565 1.47303 0 0 255
0.30219 0.0908488 1.46993 0 0 255
0.176326 -0.180296 1.50893 0 0 255
0.31521 0.131801 1.46843 0 0 255
0.267354 0.0994025 1.49714 0 0 255
0.264863 0.170573 1.51294 0 0 255
0.135698 -0.273703 1.52036 0 0 255
0.196074 -0.14437 1.50151 0 0 255
0.236825 0.0116576 1.50229 0 0 255
0.192065 -0.162945 1.5008 0 0 255
0.258077 0.057722 1.49576 0 0 255
0.330459 0.166145 1.464 0 0 255
0.292613 0.118452 1.48237 0 0 255
0.224848 -0.0157533 1.50568 0 0 255
0.257984 0.122639 1.50857 0 0 255
0.307298 0.143476 1.47653 0 0 255
0.191041 -0.137857 1.50648 0 0 255
0.197526 -0.133754 1.50253 0 0 255
0.173245 -0.13284 1.52051 0 0 255
0.169304 -0.149174 1.52019 0 0 255
0.265876 0.096991 1.49775 0 0 255
0.273319 0.0222382 1.47762 0 0 255
0.312873 0.10229 1.46435 0 0 255
0.309695 0.0816084 1.46262 0 0 255
0.245227 0.0498542 1.50363 0 0 255
0.262022 0.157209 1.5124 0 0 255
0.27669 0.0967157 1.48977 0 0 255
0.340335 0.164073 1.45636 0 0 255
0.255203 -0.0367749 1.47931 0 0 255
0.238904 -0.0423573 1.49016 0 0 255
0.308654 0.089777 1.46499 0 0 255
0.302409 0.0838255 1.46839 0 0 255
0.207459 -0.0981828 1.50224 0 0 255
0.346111 0.157217 1.45078 0 0 255
0.179357 -0.150862 1.51249 0 0 255
0.292684 0.103531 1.47939 0 0 255
0.302235 0.0880138 1.46934 0 0 255
0.254392 0.106156 1.50797 0 0 255
0.190083 -0.119805 1.51073 0 0 255
0.27635 0.169052 1.50423 0 0 255
0.247243 0.00199508 1.49275 0 0 255
0.258862 -0.0150202 1.4809 0 0 255
0.331244 0.152979 1.46084 0 0 255
0.29873 0.13266 1.48068 0 0 255
0.314482 0.16189 1.47488 0 0 255
0.244329 -0.00342481 1.49383 0 0 255
0.271514 0.0326965 1.481 0 0 255
0.322354 0.14695 1.46617 0 0 255
0.208888 -0.079027 1.50495 0 0 255
0.209306 -0.021008 1.51604 0 0 255
0.243496 0.0863715 1.51207 0 0 255
0.191045 -0.109131 1.51212 0 0 255
0.267286 0.143254 1.5058 0 0 255
0.253066 0.12298 1.51224 0 0 255
0.231228 0.0783528 1.51948 0 0 255
0.267668 0.131842 1.50328 0 0 255
0.165574 -0.17494 1.51786 0 0 255
0.167384 -0.155739 1.5203 0 0 255
0.211 -0.0687174 1.50543 0 0 255
0.233405 0.0173406 1.50591 0 0 255
0.19168 -0.0919223 1.51503 0 0 255
0.231688 0.0291093 1.50948 0 0 255
0.281886 0.136119 1.4937 0 0 255
0.303886 0.0685408 1.46431 0 0 255
0.273218 0.136128 1.50006 0 0 255
0.281939 0.0380002 1.4744 0 0 255
0.25627 0.107533 1.50686 0 0 255
0.271952 0.111468 1.49614 0 0 255
0.2539 0.0827685 1.50374 0 0 255
0.238877 -0.00248325 1.49801 0 0 255
0.242082 -0.0192291 1.49237 0 0 255
0.280952 0.170981 1.50123 0 0 255
0.224554 -0.0251647 1.50405 0 0 255
0.234731 0.00338414 1.5022 0 0 255
0.108587 -0.165143 1.55222 0 0 255
0.129539 -0.247786 1.52788 0 0 255
0.103801 -0.171075 1.55402 0 0 255
0.109966 -0.176809 1.54967 0 0 255
0.0632119 -0.237793 1.56685 0 0 255
0.0690433 -0.218576 1.56647 0 0 255
0.19493 -0.00314194 1.52797 0 0 255
0.195208 0.011977 1.5301 0 0 255
0.168856 -0.0862009 1.53013 0 0 255
0.189406 0.0298325 1.53608 0 0 255
0.157861 -0.139892 1.52821 0 0 255
0.112923 -0.124384 1.55594 0 0 255
0.204613 0.0782745 1.53482 0 0 255
0.136495 -0.258696 1.5223 0 0 255
0.183186 -0.0744978 1.52381 0 0 255
0.169452 -0.0256847 1.53895 0 0 255
0.142816 -0.187465 1.52951 0 0 255
0.225464 0.0770387 1.52286 0 0 255
0.143437 -0.0469266 1.55043 0 0 255
0.211194 0.0530275 1.52729 0 0 255
0.134046 -0.269366 1.52207 0 0 255
0.0743735 -0.193982 1.56718 0 0 255
0.0497204 -0.261428 1.57089 0 0 255
0.135072 -0.0784876 1.55037 0 0 255
0.20003 0.069813 1.53613 0 0 255
0.235281 0.134673 1.52604 0 0 255
0.169273 -0.127008 1.52372 0 0 255
0.0979045 -0.264035 1.54329 0 0 255
0.156784 -0.145383 1.52799 0 0 255
0.146468 -0.0594545 1.54682 0 0 255
0.148307 -0.0656853 1.54484 0 0 255
0.159883 -0.109153 1.53172 0 0 255
0.173107 -0.0831634 1.52819 0 0 255
0.202465 0.0619125 1.53356 0 0 255
0.198531 -0.00995374 1.52491 0 0 255
0.202404 0.00852558 1.52552 0 0 255
0.178138 -0.00728966 1.53683 0 0 255
0.182659 0.00438961 1.53604 0 0 255
0.132485 -0.215881 1.53104 0 0 255
0.133728 -0.258919 1.52383 0 0 255
0.181244 0.0120121 1.53799 0 0 255
0.0972781 -0.243963 1.54668 0 0 255
0.15223 -0.11586 1.53503 0 0 255
0.129975 -0.179644 1.53795 0 0 255
0.0715798 -0.198749 1.56803 0 0 255
0.195142 -0.0323015 1.52344 0 0 255
0.108638 -0.120218 1.55899 0 0 255
0.142437 -0.126777 1.53891 0 0 255
0.168112 -0.137811 1.52274 0 0 255
0.105184 -0.137944 1.55826 0 0 255
0.203497 0.065605 1.53354 0 0 255
0.205001 -0.00745359 1.52163 0 0 255
0.0788019 -0.21954 1.56081 0 0 255
0.146572 -0.105337 1.53982 0 0 255
0.14552 -0.17516 1.52985 0 0 255
0.0913399 -0.231497 1.55192 0 0 255
0.120971 -0.141104 1.54886 0 0 255
0.141123 -0.0527826 1.55085 0 0 255
0.0929613 -0.190496 1.55721 0 0 255
0.146525 -0.175511 1.52922 0 0 255
0.217135 0.0731626 1.52698 0 0 255
0.203642 0.0330463 1.52853 0 0 255
0.117338 -0.123805 1.55353 0 0 255
0.0520327 -0.261671 1.56955 0 0 255
0.186992 -0.0375566 1.52725 0 0 255
0.062648 -0.233093 1.56788 0 0 255
0.194641 0.0514421 1.53639 0 0 255
0.1315 -0.161871 1.53977 0 0 255
0.13005 -0.158152 1.54116 0 0 255
0.179917 0.000955657 1.53707 0 0 255
0.120928 -0.149111 1.54768 0 0 255
0.105709 -0.118046 1.56097 0 0 255
0.196896 0.0450433 1.53415 0 0 255
0.129928 -0.116528 1.54752 0 0 255
0.108223 -0.2878 1.53386 0 0 255
0.178575 -0.10581 1.52167 0 0 255
0.0758656 -0.0862997 1.58263 0 0 255
0.114793 0.0522252 1.58161 0 0 255
0.107628 -0.00485041 1.57702 0 0 255
0.168471 0.0163739 1.54587 0 0 255
0.128265 0.0948574 1.58045 0 0 255
0.142773 0.154834 1.58133 0 0 255
0.200946 0.139243 1.54612 0 0 255
0.198343 0.190736 1.55538 0 0 255
0.0973129 -0.117208 1.56584 0 0 255
0.16489 0.0979271 1.56023 0 0 255
0.126804 -0.00295352 1.56647 0 0 255
0.15962 0.0360493 1.55384 0 0 255
0.173424 0.0684936 1.55096 0 0 255
0.0983249 -0.0148912 1.58075 0 0 255
0.102381 -0.112811 1.56364 0 0 255
0.154072 0.129026 1.57105 0 0 255
0.198806 0.0793656 1.53827 0 0 255
0.137339 -0.0167286 1.55844 0 0 255
0.218033 0.162846 1.54004 0 0 255
0.163834 0.012983 1.54797 0 0 255
0.13803 0.0136398 1.56265 0 0 255
0.168974 0.190529 1.57194 0 0 255
0.14787 0.0145523 1.55723 0 0 255
0.0540109 -0.208574 1.57647 0 0 255
0.0941725 -0.0806205 1.57315 0 0 255
0.157065 -0.00851755 1.54854 0 0 255
0.176372 0.132028 1.55891 0 0 255
0.120778 0.0576625 1.57905 0 0 255
0.210774 0.131646 1.53942 0 0 255
0.120848 0.07126 1.58107 0 0 255
0.14505 0.136683 1.5773 0 0 255
0.142869 0.0490409 1.56527 0 0 255
0.181631 0.186371 1.56416 0 0 255
0.12243 0.0581002 1.57818 0 0 255
0.170327 0.109799 1.55896 0 0 255
0.161542 0.195607 1.5769 0 0 255
0.156137 0.146017 1.57245 0 0 255
0.113304 0.0365398 1.58007 0 0 255
0.148734 0.12112 1.57286 0 0 255
0.19694 0.0735814 1.53845 0 0 255
0.102533 -0.068941 1.5702 0 0 255
0.133495 -0.00132162 1.56294 0 0 255
0.233062 0.156046 1.53053 0 0 255
0.195346 0.110809 1.54498 0 0 255
0.196265 0.0943293 1.54197 0 0 255
0.204693 0.180635 1.55027 0 0 255
0.21904 0.112142 1.5318 0 0 255
0.178142 0.0866362 1.55104 0 0 255
0.195514 0.157743 1.55199 0 0 255
0.165829 0.0912645 1.55869 0 0 255
0.147453 0.0366188 1.5608 0 0 255
0.118644 -0.0354208 1.56617 0 0 255
0.208873 0.136085 1.54117 0 0 255
0.118904 0.063899 1.58105 0 0 255
0.21929 0.16839 1.54017 0 0 255
0.144006 0.128856 1.57671 0 0 255
0.201203 0.132552 1.54496 0 0 255
0.199572 0.106711 1.54197 0 0 255
0.126722 0.0765536 1.57855 0 0 255
0.0616781 -0.169587 1.57804 0 0 255
0.145077 0.0711414 1.56737 0 0 255
0.182639 0.0557143 1.54382 0 0 255
0.109732 0.017941 1.57928 0 0 255
0.138497 0.0970134 1.575 0 0 255
0.174874 0.113275 1.55692 0 0 255
0.111205 -0.0235829 1.57216 0 0 255
0.0821792 -0.0888873 1.57867 0 0 255
0.117399 0.010065 1.57376 0 0 255
0.147662 0.0932894 1.56926 0 0 255
0.187714 0.0843771 1.54529 0 0 255
0.126082 0.0919483 1.58124 0 0 255
0.130386 -0.0273238 1.56076 0 0 255
0.0544217 -0.208849 1.5762 0 0 255
0.17924 0.104118 1.55306 0 0 255
0.176665 0.152237 1.5618 0 0 255
0.0596788 -0.158608 1.58083 0 0 255
0.11107 0.0213633 1.57904 0 0 255
0.0617046 -0.0215419 1.59586 0 0 255
-0.0363408 -0.174305 1.61978 0 0 255
0.0133097 -0.0952463 1.60786 0 0 255
0.0406631 -0.187468 1.58605 0 0 255
0.101126 0.0482846 1.58719 0 0 255
0.0676775 -0.0824691 1.58652 0 0 255
-0.0528109 -0.202664 1.62349 0 0 255
0.121991 0.0895903 1.58308 0 0 255
0.0653389 -0.0883575 1.58684 0 0 255
0.0730269 -0.0580505 1.58702 0 0 255
0.0731504 0.0150468 1.59517 0 0 255
0.143844 0.170383 1.583 0 0 255
0.104215 0.037618 1.5847 0 0 255
-0.0171379 -0.253198 1.60288 0 0 255
0.117741 0.110501 1.58721 0 0 255
0.0920446 0.0895547 1.59562 0 0 255
0.0480309 -0.0824562 1.59475 0 0 255
0.0236442 -0.0412868 1.60958 0 0 255
0.0997007 0.0893404 1.59239 0 0 255
0.0667336 -0.106397 1.58423 0 0 255
0.0510414 -0.159233 1.58487 0 0 255
0.0844127 0.0726624 1.59692 0 0 255
-0.0654907 -0.207909 1.62822 0 0 255
0.0123505 -0.0895499 1.6089 0 0 255
-0.0307025 -0.1587 1.61917 0 0 255
0.0231828 -0.127925 1.60005 0 0 255
0.00507837 -0.136101 1.60672 0 0 255
0.101288 0.0453688 1.58679 0 0 255
0.0787165 -0.0671716 1.58361 0 0 255
-0.00371428 -0.0999904 1.61445 0 0 255
0.0444241 -0.142083 1.58957 0 0 255
0.072495 -0.055188 1.58757 0 0 255
0.0579869 -0.0687126 1.59212 0 0 255
0.117745 0.118322 1.58809 0 0 255
-0.0535065 -0.216574 1.62222 0 0 255
0.0410648 -0.184844 1.58618 0 0 255
0.0589564 -0.00455989 1.59892 0 0 255
0.1014 0.10737 1.5937 0 0 255
0.023329 -0.155713 1.59688 0 0 255
0.0268453 -0.0918875 1.60256 0 0 255
0.0542045 -0.136168 1.58614 0 0 255
0.0313753 -0.214652 1.58689 0 0 255
-0.0468582 -0.232024 1.61771 0 0 255
0.071618 -0.0461842 1.58894 0 0 255
-0.00727164 -0.164467 1.60871 0 0 255
0.102225 0.024079 1.58401 0 0 255
0.0985086 0.0655895 1.59022 0 0 255
0.090422 0.0399116 1.59073 0 0 255
0.121621 0.126442 1.58737 0 0 255
-0.0115773 -0.231567 1.60298 0 0 255
0.0155272 -0.0593785 1.61095 0 0 255
-0.0314993 -0.167362 1.61853 0 0 255
-0.0632871 -0.241049 1.62357 0 0 255
-0.07139 -0.229113 1.62831 0 0 255
0.015561 -0.260525 1.58837 0 0 255
0.0404987 -0.0479784 1.60177 0 0 255
0.00959886 -0.104806 1.60834 0 0 255
0.0672422 -0.0304813 1.59254 0 0 255
0.0419908 -0.114694 1.59366 0 0 255
-0.0637631 -0.220111 1.62612 0 0 255
0.0371635 -0.136473 1.59324 0 0 255
-0.00639108 -0.204842 1.60381 0 0 255
0.0522839 -0.0920596 1.59189 0 0 255
-0.0379147 -0.16034 1.622 0 0 255
0.106922 0.0579334 1.58584 0 0 255
0.0831187 0.0302575 1.5927 0 0 255
0.0199417 -0.0521632 1.60991 0 0 255
0.0357461 -0.0218185 1.6067 0 0 255
-0.0104546 -0.127782 1.61416 0 0 255
-0.0100705 -0.189452 1.60708 0 0 255
0.025479 -0.173874 1.59394 0 0 255
0.0506026 -0.164259 1.58449 0 0 255
-0.0361617 -0.240665 1.61226 0 0 255
-0.0020814 -0.213479 1.60103 0 0 255
0.112611 0.0587359 1.58355 0 0 255
0.0627504 -0.111577 1.58532 0 0 255
0.0278167 -0.211769 1.58871 0 0 255
0.072614 0.152105 1.61078 0 0 255
-0.015268 -0.0362774 1.62644 0 0 255
0.0509917 0.121082 1.61635 0 0 255
0.0585526 0.123178 1.61342 0 0 255
0.0753967 0.0958219 1.6033 0 0 255
0.103535 0.226692 1.6062 0 0 255
-0.0252211 -0.0442647 1.62971 0 0 255
0.123677 0.184728 1.59305 0 0 255
0.0627521 0.159865 1.61578 0 0 255
0.109949 0.136716 1.59341 0 0 255
0.0127904 0.0472383 1.62406 0 0 255
0.0898418 0.227279 1.612 0 0 255
0.128267 0.178243 1.5904 0 0 255
-0.0280866 -0.082104 1.62667 0 0 255
-0.0244477 -0.0719048 1.62629 0 0 255
0.0251326 0.141207 1.62944 0 0 255
0.0218331 -0.0235621 1.61233 0 0 255
0.0190906 -8.1843e-05 1.61611 0 0 255
0.0967058 0.221125 1.60843 0 0 255
0.0228551 0.0795744 1.62348 0 0 255
0.0718982 0.068622 1.60171 0 0 255
0.023672 -0.0309594 1.61073 0 0 255
0.0501412 0.196207 1.62514 0 0 255
0.106531 0.131436 1.59425 0 0 255
0.0440077 0.0607119 1.6125 0 0 255
-0.0225113 -0.058332 1.627 0 0 255
0.0304974 0.151624 1.62836 0 0 255
0.0847574 0.197513 1.61079 0 0 255
-0.0346061 -0.0654116 1.63127 0 0 255
0.026181 0.13879 1.62873 0 0 255
0.00885211 0.0835603 1.62979 0 0 255
0.0458043 0.105043 1.61672 0 0 255
0.0385108 0.0813233 1.61712 0 0 255
0.059546 0.156129 1.6167 0 0 255
0.0514807 0.0882465 1.61246 0 0 255
0.00627888 0.0345751 1.62537 0 0 255
-0.00822323 -0.00819227 1.62664 0 0 255
0.118669 0.208708 1.59784 0 0 255
0.0708892 0.150888 1.61136 0 0 255
-0.0195449 -0.0384657 1.62799 0 0 255
0.0543183 0.172231 1.6207 0 0 255
0.0629489 0.0970495 1.60865 0 0 255
0.0851264 0.198608 1.61076 0 0 255
0.019904 0.0696292 1.6236 0 0 255
0.114442 0.152413 1.59329 0 0 255
0.043701 0.125758 1.61993 0 0 255
0.0213061 0.140692 1.63098 0 0 255
0.088876 0.103332 1.59849 0 0 255
0.059398 0.111564 1.61176 0 0 255
0.0524381 0.137849 1.61763 0 0 255
0.0223245 0.00361669 1.61518 0 0 255
0.091024 0.103039 1.59756 0 0 255
0.138269 0.181706 1.5866 0 0 255
0.049052 0.0847923 1.61309 0 0 255
0.0703817 0.177793 1.61459 0 0 255
-0.0251974 -0.0469655 1.6294 0 0 255
0.0553817 0.239354 1.62778 0 0 255
0.0190323 0.075832 1.62466 0 0 255
0.0943952 0.22505 1.60984 0 0 255
0.022714 0.139321 1.63024 0 0 255
0.00772066 0.0349704 1.62481 0 0 255
0.107997 0.184788 1.59963 0 0 255
0.0331758 0.147791 1.62681 0 0 255
-0.0175026 -0.107022 1.61944 0 0 255
0.129387 0.184501 1.59064 0 0 255
0.0208505 0.13546 1.63059 0 0 255
-0.00627159 -0.0679778 1.61912 0 0 255
0.0715206 0.109482 1.60645 0 0 255
0.0732149 0.148236 1.61009 0 0 255
0.0193344 0.0181542 1.61806 0 0 255
0.106271 0.205601 1.60268 0 0 255
0.0722226 0.230035 1.61969 0 0 255
0.0370225 0.0835629 1.61799 0 0 255
0.0956428 0.196963 1.60617 0 0 255
0.115897 0.208701 1.599 0 0 255
0.0697582 0.212005 1.61869 0 0 255
0.0885979 0.228178 1.61262 0 0 255
-0.0994175 -0.116452 1.64604 0 0 255
-0.0706393 0.00767816 1.64732 0 0 255
-0.132631 -0.208911 1.64846 0 0 255
-0.0872547 -0.214273 1.63502 0 0 255
0.0002906 0.108906 1.63474 0 0 255
-0.0268889 0.0817213 1.64046 0 0 255
-0.0743826 0.00107633 1.64789 0 0 255
-0.178544 -0.193315 1.66285 0 0 255
-0.0106673 0.0910627 1.63652 0 0 255
-0.0685802 -0.0567799 1.64177 0 0 255
-0.0671674 -0.0269282 1.64366 0 0 255
-0.077925 -0.131735 1.63869 0 0 255
-0.0388119 0.00850256 1.63825 0 0 255
-0.12483 -0.123674 1.65278 0 0 255
-0.142654 -0.164189 1.65478 0 0 255
-0.0188867 0.034107 1.6345 0 0 255
-0.0278535 0.092323 1.64155 0 0 255
-0.0480959 0.0363301 1.64306 0 0 255
-0.0980432 -0.206761 1.63869 0 0 255
-0.176239 -0.194513 1.66209 0 0 255
-0.090824 -0.229825 1.63484 0 0 255
0.00403041 0.100469 1.63302 0 0 255
0.0198879 0.191766 1.63549 0 0 255
-0.151883 -0.187089 1.65567 0 0 255
-0.0532625 0.0178484 1.64312 0 0 255
-0.086446 -0.214138 1.63479 0 0 255
-0.00391762 0.115746 1.63648 0 0 255
-0.0468057 -0.0240309 1.63804 0 0 255
-0.114264 -0.129513 1.6493 0 0 255
-0.114948 -0.19969 1.64409 0 0 255
-0.108136 -0.107488 1.64923 0 0 255
-0.0944367 -0.0542476 1.64939 0 0 255
-0.0313097 0.0930536 1.6426 0 0 255
-0.14802 -0.16395 1.65634 0 0 255
-0.013991 0.0914791 1.6375 0 0 255
-0.091749 -0.0188154 1.65135 0 0 255
-0.179423 -0.186006 1.66366 0 0 255
-0.13538 -0.132362 1.65514 0 0 255
-0.104917 -0.113506 1.64784 0 0 255
-0.0632253 0.0148789 1.64575 0 0 255
-0.030254 0.0768231 1.64105 0 0 255
-0.0256902 0.0323731 1.63632 0 0 255
-0.0564245 -0.0410983 1.63949 0 0 255
-0.0822363 -0.0344573 1.64741 0 0 255
-0.030255 -0.00671681 1.63462 0 0 255
-0.0735169 -0.0787229 1.6415 0 0 255
0.00140279 0.0913519 1.63307 0 0 255
-0.0012423 0.0653767 1.63183 0 0 255
-0.111963 -0.217962 1.64183 0 0 255
-0.121179 -0.187816 1.6468 0 0 255
-0.0594967 -0.12766 1.63371 0 0 255
-0.0794565 -0.0643558 1.64431 0 0 255
-0.0244748 -0.0142923 1.63238 0 0 255
-0.0941558 -0.174898 1.64003 0 0 255
-0.0670756 -0.0938626 1.63849 0 0 255
-0.0252571 0.0820173 1.64001 0 0 255
-0.0957464 -0.135476 1.64352 0 0 255
-0.0681059 -0.134423 1.63566 0 0 255
-0.0390186 0.0542727 1.64183 0 0 255
-0.00421666 0.142635 1.63863 0 0 255
-0.0951254 -0.125363 1.64412 0 0 255
-0.0795256 -0.172601 1.636 0 0 255
-0.0964222 -0.188561 1.63963 0 0 255
-0.0900225 -0.119253 1.64312 0 0 255
-0.106301 -0.061866 1.65222 0 0 255
-0.0201652 0.0772852 1.63819 0 0 255
-0.0126881 0.0198661 1.63162 0 0 255
-0.165802 -0.1758 1.66054 0 0 255
-0.125292 -0.14476 1.65129 0 0 255
-0.108868 -0.23116 1.63992 0 0 255
0.0373088 0.222062 1.63282 0 0 255
0.0243302 0.17634 1.63303 0 0 255
-0.0546058 -0.0821803 1.6358 0 0 255
-0.0115832 0.117356 1.6388 0 0 255
-0.131028 -0.198606 1.64879 0 0 255
-0.155515 -0.145287 1.65993 0 0 255
-0.177915 -0.179981 1.66369 0 0 255
-0.0706085 0.0445545 1.65015 0 0 255
-0.05861 0.105473 1.6514 0 0 255
-0.0384987 0.244853 1.65635 0 0 255
-0.0569142 0.232936 1.66072 0 0 255
-0.0967904 0.131982 1.6644 0 0 255
-0.0938888 0.043106 1.65673 0 0 255
-0.142332 -0.102249 1.65946 0 0 255
-0.11745 -0.0190636 1.65871 0 0 255
0.0063375 0.207446 1.64059 0 0 255
-0.178527 -0.168102 1.66478 0 0 255
-0.151401 -0.102947 1.66201 0 0 255
-0.0725296 0.0735345 1.65294 0 0 255
-0.111345 0.029078 1.66066 0 0 255
-0.136985 -0.0213988 1.66414 0 0 255
-0.074312 0.13292 1.65802 0 0 255
-0.0413663 0.243861 1.65709 0 0 255
-0.0990916 0.0260253 1.65691 0 0 255
-0.0492947 0.0916146 1.64765 0 0 255
-0.0671621 0.0420225 1.64897 0 0 255
0.00341178 0.210845 1.64169 0 0 255
-0.0232789 0.225222 1.65046 0 0 255
-0.144259 -0.0401964 1.66478 0 0 255
-0.108757 0.0429358 1.66099 0 0 255
-0.0546418 0.249707 1.66136 0 0 255
-0.107362 0.0400981 1.66037 0 0 255
-0.121952 0.0387569 1.66445 0 0 255
-0.0207832 0.167428 1.6453 0 0 255
-0.0596313 0.157158 1.65567 0 0 255
0.024109 0.207563 1.6355 0 0 255
-0.0836679 0.0207722 1.65207 0 0 255
-0.114374 -0.041307 1.65612 0 0 255
-0.112163 0.0545959 1.66286 0 0 255
-0.101305 0.120265 1.6648 0 0 255
-0.0779901 0.0257462 1.65083 0 0 255
-0.0795705 0.106506 1.6575 0 0 255
-0.148773 -0.0383507 1.66622 0 0 255
-0.00518278 0.152611 1.63968 0 0 255
-0.0562436 0.162482 1.6551 0 0 255
-0.150513 -0.101428 1.66187 0 0 255
-0.106438 0.0599008 1.66162 0 0 255
-0.0813016 0.0962715 1.6572 0 0 255
-0.144549 -0.0487317 1.66421 0 0 255
-0.0572832 0.109872 1.65135 0 0 255
-0.061835 0.146368 1.65547 0 0 255
-0.0403887 0.159938 1.65035 0 0 255
0.0293756 0.219393 1.63489 0 0 255
-0.059801 0.0652193 1.64864 0 0 255
0.0399272 0.234241 1.63301 0 0 255
-0.0979528 0.115655 1.66348 0 0 255
-0.0776384 0.188834 1.66328 0 0 255
-0.138024 -0.0674677 1.66089 0 0 255
-0.0951602 0.162134 1.66625 0 0 255
-0.090691 0.0184928 1.65392 0 0 255
-0.0671517 0.240712 1.66426 0 0 255
-0.0482421 0.106131 1.64847 0 0 255
-0.130563 -0.0492827 1.66015 0 0 255
0.0103333 0.227368 1.64098 0 0 255
-0.147839 -0.0843112 1.66242 0 0 255
0.00536833 0.254566 1.64449 0 0 255
-0.0227733 0.154798 1.6449 0 0 255
-0.0246959 0.193843 1.64846 0 0 255
-0.0283655 0.152199 1.64631 0 0 255
-0.0783911 0.167901 1.66188 0 0 255
-0.0497433 0.210107 1.6569 0 0 255
-0.0020742 0.234258 1.64507 0 0 255
-0.00757002 0.23096 1.64639 0 0 255
0.0102941 0.214489 1.64 0 0 255
-0.125086 -0.00240278 1.66219 0 0 255
-0.0455669 0.173558 1.65289 0 0 255
-0.0929598 0.150312 1.66471 0 0 255
0.0433623 0.238488 1.63235 0 0 255
-0.0495142 0.232375 1.65855 0 0 255
-0.0857054 0.00478088 1.65143 0 0 255
-0.0761712 0.0598124 1.65293 0 0 255
-0.0829815 0.0988636 1.65789 0 0 255
-0.0604734 0.223369 1.661 0 0 255
-0.0456465 0.131806 1.6497 0 0 255
-0.161751 -0.0822527 1.66653 0 0 255
-0.25947 -0.129725 1.68054 0 0 255
-0.251333 -0.11054 1.68005 0 0 255
-0.149776 -0.0255492 1.66706 0 0 255
-0.225672 -0.156328 1.67379 0 0 255
-0.194493 -0.167153 1.66817 0 0 255
-0.182089 -0.10398 1.66892 0 0 255
-0.160744 0.0470116 1.67207 0 0 255
-0.193852 0.0271804 1.67666 0 0 255
-0.197984 -0.153675 1.66935 0 0 255
-0.161037 -0.0693638 1.66698 0 0 255
-0.211463 -0.0751251 1.67504 0 0 255
-0.228469 -0.107264 1.67642 0 0 255
-0.161877 0.0928679 1.67428 0 0 255
-0.277541 -0.159728 1.6822 0 0 255
-0.217156 -0.174713 1.67158 0 0 255
-0.203745 -0.102643 1.67255 0 0 255
-0.200786 -0.0816883 1.67299 0 0 255
-0.232898 -0.0632341 1.6791 0 0 255
-0.191034 -0.00466276 1.67478 0 0 255
-0.114454 0.180824 1.67035 0 0 255
-0.205791 0.000762437 1.67746 0 0 255
-0.285132 -0.164693 1.68323 0 0 255
-0.156751 -0.0215906 1.66838 0 0 255
-0.209954 -0.0173256 1.67734 0 0 255
-0.158486 0.0452677 1.67162 0 0 255
-0.197051 -0.157133 1.66904 0 0 255
-0.148653 0.0483589 1.67014 0 0 255
-0.279659 -0.15124 1.68292 0 0 255
-0.0973768 0.20959 1.66881 0 0 255
-0.297182 -0.172194 1.68488 0 0 255
-0.179074 -0.146479 1.66655 0 0 255
-0.139028 0.0979714 1.67074 0 0 255
-0.122755 0.139488 1.66989 0 0 255
-0.20348 -0.0367151 1.67542 0 0 255
-0.150707 0.0931544 1.67246 0 0 255
-0.125615 0.0984103 1.66855 0 0 255
-0.199813 -0.167595 1.66903 0 0 255
-0.193214 -0.19294 1.66682 0 0 255
-0.214935 -0.0798787 1.6754 0 0 255
-0.130707 0.0909555 1.66906 0 0 255
-0.256797 -0.0864666 1.68201 0 0 255
-0.206944 -0.0978862 1.67329 0 0 255
-0.143401 0.0813808 1.67073 0 0 255
-0.28937 -0.146859 1.68472 0 0 255
-0.290402 -0.160827 1.68427 0 0 255
-0.151882 0.00759224 1.66887 0 0 255
-0.264248 -0.133813 1.68115 0 0 255
-0.209508 0.00389697 1.67821 0 0 255
-0.085788 0.218174 1.66727 0 0 255
-0.148196 0.03462 1.66946 0 0 255
-0.156007 0.0975676 1.67352 0 0 255
-0.159062 -0.0539843 1.66733 0 0 255
-0.201432 0.00988993 1.67714 0 0 255
-0.112918 0.164497 1.66938 0 0 255
-0.166726 0.0308209 1.67234 0 0 255
-0.176845 -0.0661049 1.66973 0 0 255
-0.130851 0.0802734 1.66861 0 0 255
-0.216831 -0.0438594 1.67731 0 0 255
-0.179163 0.0348977 1.67457 0 0 255
-0.0902647 0.217838 1.668 0 0 255
-0.221314 -0.109207 1.67516 0 0 255
-0.149043 -0.00117835 1.66801 0 0 255
-0.201024 0.00913123 1.67704 0 0 255
-0.260124 -0.188631 1.67805 0 0 255
-0.129097 0.0701923 1.66788 0 0 255
-0.0988319 0.153798 1.66658 0 0 255
-0.202561 -0.100691 1.67244 0 0 255
-0.209316 0.00437498 1.6782 0 0 255
-0.114635 0.159881 1.66946 0 0 255
-0.27376 -0.135381 1.68265 0 0 255
-0.255383 -0.146624 1.67912 0 0 255
-0.13572 0.107488 1.67062 0 0 255
-0.224677 -0.126077 1.67497 0 0 255
-0.290874 -0.14491 1.68505 0 0 255
-0.188278 0.00237193 1.67464 0 0 255
-0.187121 -0.117811 1.66914 0 0 255
-0.220158 0.132969 1.68567 0 0 255
-0.226664 -0.0202135 1.67997 0 0 255
-0.289084 -0.102554 1.68663 0 0 255
-0.188181 0.124415 1.68002 0 0 255
-0.103992 0.266694 1.67242 0 0 255
-0.218745 0.0471288 1.68164 0 0 255
-0.215118 0.135538 1.68495 0 0 255
-0.193281 0.0447842 1.67734 0 0 255
-0.252254 -0.0175284 1.68431 0 0 255
-0.25577 -0.0119164 1.68514 0 0 255
-0.145021 0.281477 1.67984 0 0 255
-0.174422 0.195536 1.68089 0 0 255
-0.183366 0.186144 1.68195 0 0 255
-0.144886 0.274346 1.6795 0 0 255
-0.292046 -0.123041 1.68621 0 0 255
-0.245399 -0.0484583 1.68181 0 0 255
-0.200968 0.159369 1.68367 0 0 255
-0.174227 0.287114 1.6849 0 0 255
-0.0932687 0.264047 1.67054 0 0 255
-0.185178 0.226428 1.68403 0 0 255
-0.171112 0.229965 1.68186 0 0 255
-0.265933 -0.0384499 1.68564 0 0 255
-0.253728 0.00312164 1.68546 0 0 255
-0.2073 0.18159 1.68569 0 0 255
-0.148191 0.193613 1.67648 0 0 255
-0.296161 -0.142054 1.68605 0 0 255
-0.141583 0.219377 1.67653 0 0 255
-0.213218 0.0397804 1.6804 0 0 255
-0.160516 0.220248 1.67969 0 0 255
-0.19211 0.0987492 1.67953 0 0 255
-0.2406 0.00821852 1.68353 0 0 255
-0.236693 0.0681896 1.68553 0 0 255
-0.197188 0.158478 1.68301 0 0 255
-0.124608 0.248859 1.67503 0 0 255
-0.213552 0.134921 1.68466 0 0 255
-0.144332 0.1506 1.67394 0 0 255
-0.218571 0.0368752 1.68116 0 0 255
-0.260001 0.00426689 1.68655 0 0 255
-0.19283 0.125013 1.68081 0 0 255
-0.136969 0.2325 1.67635 0 0 255
-0.239527 -0.000661419 1.68296 0 0 255
-0.177153 0.126861 1.67831 0 0 255
-0.193564 0.19718 1.68412 0 0 255
-0.101069 0.263777 1.67181 0 0 255
-0.119854 0.283355 1.67577 0 0 255
-0.119226 0.185237 1.67133 0 0 255
-0.0917666 0.270964 1.67059 0 0 255
-0.211523 0.106709 1.68308 0 0 255
-0.141611 0.294537 1.67985 0 0 255
-0.126928 0.188436 1.67274 0 0 255
-0.296434 -0.132294 1.68652 0 0 255
-0.108028 0.240098 1.67191 0 0 255
-0.105078 0.207652 1.66999 0 0 255
-0.161359 0.275347 1.68226 0 0 255
-0.241904 0.0606233 1.68606 0 0 255
-0.150453 0.239799 1.67889 0 0 255
-0.199936 0.136689 1.6825 0 0 255
-0.145703 0.163227 1.67473 0 0 255
-0.244071 -0.00621409 1.68346 0 0 255
-0.159086 0.106949 1.67445 0 0 255
-0.164825 0.114262 1.67572 0 0 255
-0.20117 0.0355673 1.67823 0 0 255
-0.190373 0.0501465 1.6771 0 0 255
-0.164298 0.129945 1.67632 0 0 255
-0.19956 0.235235 1.68679 0 0 255
-0.131378 0.19048 1.67357 0 0 255
-0.104645 0.238294 1.67127 0 0 255
-0.155484 0.162528 1.67631 0 0 255
-0.101866 0.216538 1.66985 0 0 255
-0.176254 0.252647 1.68372 0 0 255
-0.118797 0.186605 1.67132 0 0 255
-0.227959 0.0686758 1.68411 0 0 255
-0.18144 0.108926 1.67822 0 0 255
-0.187622 0.272098 1.68645 0 0 255
-0.255244 -0.0624721 1.68282 0 0 255
-0.282882 -0.0846386 1.68639 0 0 255
-0.0782861 0.257358 1.66777 0 0 255
-0.188364 0.291452 1.68719 0 0 255
-0.358808 -0.0929339 1.69039 0 0 255
-0.315218 -0.0299362 1.68913 0 0 255
-0.319228 -0.168778 1.68755 0 0 255
-0.348956 -0.0233373 1.69081 0 0 255
-0.316466 -0.0256259 1.68924 0 0 255
-0.266636 0.0339876 1.68763 0 0 255
-0.328062 -0.153161 1.68817 0 0 255
-0.301066 -0.0149671 1.68864 0 0 255
-0.256983 0.129775 1.68839 0 0 255
-0.351028 -0.128962 1.68957 0 0 255
-0.344701 -0.126186 1.6893 0 0 255
-0.320122 0.00672844 1.68983 0 0 255
-0.374988 -0.152617 1.6904 0 0 255
-0.300567 -0.113218 1.68737 0 0 255
-0.345401 -0.066427 1.6901 0 0 255
-0.237748 0.113995 1.68728 0 0 255
-0.384037 -0.0846607 1.6917 0 0 255
-0.38727 -0.104938 1.69159 0 0 255
-0.223603 0.189021 1.68756 0 0 255
-0.344648 -0.0334088 1.69048 0 0 255
-0.2614 0.0999989 1.68822 0 0 255
-0.336011 -0.125793 1.68889 0 0 255
-0.267669 0.0207737 1.68751 0 0 255
-0.265112 0.0832577 1.68819 0 0 255
-0.236244 0.155962 1.68774 0 0 255
-0.310985 -0.105156 1.68797 0 0 255
-0.26784 0.113005 1.68869 0 0 255
-0.30073 0.00300994 1.68886 0 0 255
-0.337073 -0.105847 1.6892 0 0 255
-0.398901 -0.14065 1.69169 0 0 255
-0.308742 -0.0634553 1.68839 0 0 255
-0.319142 -0.130233 1.68804 0 0 255
-0.375774 -0.103406 1.69107 0 0 255
-0.246203 0.161995 1.68829 0 0 255
-0.358867 -0.0864463 1.69048 0 0 255
-0.228194 0.22132 1.68819 0 0 255
-0.37276 -0.0952134 1.69103 0 0 255
-0.296094 0.0670309 1.68945 0 0 255
-0.396365 -0.135277 1.69164 0 0 255
-0.26222 0.0226843 1.68728 0 0 255
-0.399439 -0.15142 1.69158 0 0 255
-0.360428 -0.119324 1.69014 0 0 255
-0.246372 0.183861 1.68858 0 0 255
-0.405679 -0.147519 1.69193 0 0 255
-0.292415 0.0448839 1.689 0 0 255
-0.364832 -0.0891911 1.69073 0 0 255
-0.356622 -0.0633697 1.69067 0 0 255
-0.248941 0.0795643 1.68737 0 0 255
-0.33111 -0.0487957 1.68964 0 0 255
-0.241082 0.189906 1.6884 0 0 255
-0.330044 0.0246219 1.69052 0 0 255
-0.257587 0.168433 1.68891 0 0 255
-0.284823 -0.0106305 1.68793 0 0 255
-0.209512 0.207319 1.68713 0 0 255
-0.290599 0.00965203 1.68846 0 0 255
-0.337108 -0.100282 1.68927 0 0 255
-0.30952 -0.156449 1.68725 0 0 255
-0.282778 0.0810503 1.689 0 0 255
-0.216745 0.227545 1.68773 0 0 255
-0.269602 0.0689066 1.68822 0 0 255
-0.28793 0.0407293 1.68873 0 0 255
-0.325199 -0.0902886 1.68883 0 0 255
-0.309173 -0.0585469 1.68847 0 0 255
-0.311777 -0.0879804 1.68822 0 0 255
-0.235634 0.205378 1.68834 0 0 255
-0.338024 0.0178511 1.69082 0 0 255
-0.26202 0.0808753 1.68801 0 0 255
-0.390031 -0.0852134 1.69198 0 0 255
-0.263062 0.0127567 1.68719 0 0 255
-0.211586 0.204423 1.68719 0 0 255
-0.276786 0.0986318 1.68894 0 0 255
-0.255178 0.134927 1.68837 0 0 255
-0.361998 -0.0752105 1.69077 0 0 255
-0.312986 0.0331857 1.68982 0 0 255
-0.296275 -0.0715864 1.6877 0 0 255
-0.316484 -0.124915 1.68798 0 0 255
-0.29185 0.138968 1.69017 0 0 255
-0.33631 0.188689 1.69291 0 0 255
-0.316474 0.205605 1.69218 0 0 255
-0.242005 0.268848 1.68945 0 0 255
-0.256225 0.233775 1.68968 0 0 255
-0.288118 0.12923 1.68986 0 0 255
-0.289446 0.206714 1.69091 0 0 255
-0.311303 0.275049 1.69282 0 0 255
-0.314536 0.0876657 1.69059 0 0 255
-0.289812 0.333012 1.69254 0 0 255
-0.315089 0.0749699 1.69045 0 0 255
-0.260528 0.271575 1.69037 0 0 255
-0.260331 0.294469 1.69065 0 0 255
-0.27637 0.177976 1.68993 0 0 255
-0.294534 0.316866 1.69256 0 0 255
-0.274655 0.229088 1.6905 0 0 255
-0.261039 0.210664 1.68961 0 0 255
-0.271027 0.193844 1.68987 0 0 255
-0.325454 0.106821 1.69135 0 0 255
-0.260648 0.195655 1.68941 0 0 255
-0.316671 0.0962624 1.6908 0 0 255
-0.284816 0.317778 1.69211 0 0 255
-0.297891 0.306366 1.69258 0 0 255
-0.215923 0.30804 1.68871 0 0 255
-0.363696 0.0369321 1.69228 0 0 255
-0.22957 0.23023 1.68837 0 0 255
-0.254268 0.299816 1.69043 0 0 255
-0.250926 0.24589 1.68958 0 0 255
-0.320096 0.127879 1.69137 0 0 255
-0.282253 0.208124 1.69059 0 0 255
-0.285408 0.149696 1.69 0 0 255
-0.226283 0.2751 1.68878 0 0 255
-0.333883 0.0319583 1.6908 0 0 255
-0.377841 0.00918425 1.6926 0 0 255
-0.315684 0.217237 1.69229 0 0 255
-0.381991 0.0232214 1.69297 0 0 255
-0.316713 0.21076 1.69226 0 0 255
-0.343786 0.169265 1.69302 0 0 255
-0.313737 0.213419 1.69215 0 0 255
-0.366075 -0.0269966 1.69158 0 0 255
-0.29568 0.126728 1.69019 0 0 255
-0.365302 -0.0171742 1.69167 0 0 255
-0.274321 0.18631 1.68994 0 0 255
-0.273158 0.155066 1.68948 0 0 255
-0.215733 0.254447 1.68802 0 0 255
-0.289768 0.324584 1.69243 0 0 255
-0.302614 0.309344 1.69284 0 0 255
-0.329238 0.0992137 1.69144 0 0 255
-0.234227 0.300283 1.68948 0 0 255
-0.248314 0.257833 1.68961 0 0 255
-0.332489 0.207684 1.69297 0 0 255
-0.356603 0.0205303 1.69173 0 0 255
-0.36313 0.0215641 1.69206 0 0 255
-0.261046 0.279089 1.69049 0 0 255
-0.35045 0.0948381 1.69239 0 0 255
-0.359332 -0.00604703 1.69152 0 0 255
-0.20819 0.279034 1.68797 0 0 255
-0.269583 0.307855 1.69126 0 0 255
-0.283904 0.261768 1.69135 0 0 255
-0.293807 0.315413 1.6925 0 0 255
-0.289902 0.1404 1.69009 0 0 255
-0.322719 0.0504714 1.69051 0 0 255
-0.340672 0.0314249 1.69112 0 0 255
-0.281604 0.331991 1.69214 0 0 255
-0.34699 0.12742 1.69264 0 0 255
-0.317673 0.253413 1.69285 0 0 255
-0.295367 0.226588 1.69145 0 0 255
-0.295723 0.209094 1.69124 0 0 255
-0.20421 0.269326 1.68766 0 0 255
-0.323358 0.0746705 1.69084 0 0 255
-0.185246 0.302368 1.68718 0 0 255
-0.339577 0.125307 1.69226 0 0 255
-0.305547 0.0872961 1.69016 0 0 255
-0.281177 0.218285 1.69067 0 0 255
-0.268437 0.303285 1.69114 0 0 255
-0.322532 0.179518 1.69214 0 0 255
-0.311377 0.22021 1.69213 0 0 255
-0.44973 -0.0707157 1.6904 0 0 255
-0.482781 -0.0936845 1.68856 0 0 255
-0.390895 0.15479 1.69029 0 0 255
-0.469727 -0.127494 1.69007 0 0 255
-0.419889 0.109373 1.68914 0 0 255
-0.482582 -0.0764835 1.68825 0 0 255
-0.381472 0.0381292 1.69309 0 0 255
-0.398678 0.0933017 1.69089 0 0 255
-0.379983 0.168833 1.69078 0 0 255
-0.393334 0.08573 1.6914 0 0 255
-0.346161 0.234612 1.6919 0 0 255
-0.388011 0.134189 1.69087 0 0 255
-0.38702 0.0897858 1.69175 0 0 255
-0.478967 -0.0459202 1.68794 0 0 255
-0.440239 0.031842 1.68917 0 0 255
-0.494556 -0.107038 1.68799 0 0 255
-0.377378 0.144179 1.69142 0 0 255
-0.453082 -0.0683592 1.69013 0 0 255
-0.466036 -0.135474 1.69047 0 0 255
-0.439123 0.00357815 1.68976 0 0 255
-0.394213 0.0427615 1.69213 0 0 255
-0.483692 -0.0635325 1.68794 0 0 255
-0.454474 -0.0893726 1.69042 0 0 255
-0.405115 0.147146 1.68946 0 0 255
-0.459905 -0.125345 1.69071 0 0 255
-0.465405 -0.0964021 1.6898 0 0 255
-0.459752 -0.0384428 1.68912 0 0 255
-0.494908 -0.044269 1.68681 0 0 255
-0.470642 -0.0222417 1.68807 0 0 255
-0.475794 -0.0364526 1.68798 0 0 255
-0.393553 0.0449765 1.69213 0 0 255
-0.411071 0.0207468 1.69137 0 0 255
-0.424395 -0.0686816 1.6921 0 0 255
-0.448561 -0.0852983 1.69075 0 0 255
-0.446587 -0.0107801 1.68952 0 0 255
-0.520382 -0.080695 1.68574 0 0 255
-0.501917 -0.0540201 1.68651 0 0 255
-0.385551 0.138634 1.69096 0 0 255
-0.484456 -0.0878656 1.68833 0 0 255
-0.432512 -0.0521993 1.69124 0 0 255
-0.412013 -0.0187824 1.69204 0 0 255
-0.381527 0.120639 1.69156 0 0 255
-0.471678 -0.0460986 1.68844 0 0 255
-0.418459 0.0712879 1.68994 0 0 255
-0.414425 -0.0596928 1.69262 0 0 255
-0.394184 0.116558 1.69077 0 0 255
-0.346438 0.204751 1.69243 0 0 255
-0.373187 0.115859 1.69222 0 0 255
-0.495883 -0.069703 1.68722 0 0 255
-0.361603 0.220099 1.6911 0 0 255
-0.322383 0.26158 1.69303 0 0 255
-0.489652 -0.0239566 1.6868 0 0 255
-0.43682 0.0891448 1.68835 0 0 255
-0.346993 0.196768 1.69253 0 0 255
-0.49533 -0.0535114 1.68696 0 0 255
-0.42026 -0.0935062 1.69284 0 0 255
-0.516328 -0.0673727 1.68577 0 0 255
-0.406748 -0.0559006 1.69308 0 0 255
-0.430723 -0.101686 1.69228 0 0 255
-0.394304 0.0454441 1.69207 0 0 255
-0.46545 -0.0849146 1.68958 0 0 255
-0.462268 -0.069835 1.68952 0 0 255
-0.489876 -0.0408632 1.6871 0 0 255
-0.508553 -0.11422 1.68716 0 0 255
-0.409204 0.0108712 1.69168 0 0 255
-0.365165 0.105903 1.69296 0 0 255
-0.430276 0.0167056 1.69013 0 0 255
-0.515964 -0.0940779 1.68628 0 0 255
-0.317318 0.287043 1.69291 0 0 255
-0.35811 0.134319 1.69292 0 0 255
-0.442616 -0.0334706 1.6902 0 0 255
-0.476585 -0.101227 1.68912 0 0 255
-0.437121 -0.0221532 1.69037 0 0 255
-0.422126 0.000457823 1.69099 0 0 255
-0.524419 -0.082636 1.68549 0 0 255
-0.427306 0.0854226 1.68907 0 0 255
-0.47533 -0.109202 1.68935 0 0 255
-0.33301 0.323637 1.69116 0 0 255
-0.421118 0.360244 1.68444 0 0 255
-0.490305 0.0429452 1.68553 0 0 255
-0.36129 0.317869 1.68933 0 0 255
-0.438823 0.254751 1.68516 0 0 255
-0.329935 0.309813 1.69163 0 0 255
-0.443383 0.27132 1.68455 0 0 255
-0.435047 0.307493 1.68445 0 0 255
-0.475135 0.159307 1.68443 0 0 255
-0.500932 0.0148314 1.68531 0 0 255
-0.519169 -0.0223182 1.68475 0 0 255
-0.354658 0.348197 1.68922 0 0 255
-0.349049 0.289365 1.69069 0 0 255
-0.524473 -0.0342272 1.6846 0 0 255
-0.374867 0.349282 1.68782 0 0 255
-0.459008 0.185473 1.68505 0 0 255
-0.433652 0.160808 1.68725 0 0 255
-0.306829 0.330948 1.69282 0 0 255
-0.460776 0.160677 1.68539 0 0 255
-0.436117 0.212894 1.68612 0 0 255
-0.436522 0.152487 1.6872 0 0 255
-0.371807 0.222784 1.69035 0 0 255
-0.402606 0.203896 1.68859 0 0 255
-0.412258 0.357422 1.6851 0 0 255
-0.412153 0.216743 1.68769 0 0 255
-0.458007 0.172707 1.68536 0 0 255
-0.506637 0.0155883 1.68491 0 0 255
-0.467433 0.0756739 1.68649 0 0 255
-0.410853 0.157963 1.68886 0 0 255
-0.488952 0.0478255 1.68553 0 0 255
-0.438517 0.292114 1.6845 0 0 255
-0.327968 0.291423 1.6921 0 0 255
-0.506815 0.0391907 1.68446 0 0 255
-0.352622 0.29916 1.69026 0 0 255
-0.371396 0.347534 1.68809 0 0 255
-0.458129 0.212187 1.68462 0 0 255
-0.45463 0.128587 1.6864 0 0 255
-0.345754 0.293239 1.69084 0 0 255
-0.334297 0.332813 1.6909 0 0 255
-0.43738 0.263981 1.68509 0 0 255
-0.452762 0.215405 1.68493 0 0 255
-0.342251 0.339167 1.69024 0 0 255
-0.437905 0.220543 1.68586 0 0 255
-0.408261 0.251833 1.68732 0 0 255
-0.472658 0.0304216 1.68697 0 0 255
-0.387313 0.191232 1.68987 0 0 255
-0.398827 0.232167 1.68832 0 0 255
-0.501948 -0.0172352 1.68583 0 0 255
-0.359579 0.301935 1.68974 0 0 255
-0.425649 0.123132 1.68849 0 0 255
-0.455493 0.143179 1.68607 0 0 255
-0.459755 0.102054 1.68654 0 0 255
-0.403521 0.283391 1.68706 0 0 255
-0.514754 -0.0513618 1.68558 0 0 255
-0.351023 0.323984 1.68992 0 0 255
-0.347292 0.289077 1.69082 0 0 255
-0.388508 0.288836 1.68799 0 0 255
-0.414466 0.330286 1.68545 0 0 255
-0.467999 0.160267 1.6849 0 0 255
-0.355899 0.341317 1.68926 0 0 255
