ply
format ascii 1.0
comment Created by CloudCompare v2.11.1 (Anoia)
comment Created 22. 1. 26. 오후 11:34
obj_info Generated by CloudCompare!
element vertex 729
property float x
property float y
property float z
property uchar red
property uchar green
property uchar blue
property float nx
property float ny
property float nz
end_header
-0.462464 -0.243216 -0.176066 0 0 255 0.900365 -0.297165 0.317863 
0.197826 1.78027 -0.120614 0 0 255 0.935636 -0.323716 0.140687 
-0.34571 0.137462 -0.140993 0 0 255 0.91163 -0.304849 0.275677 
-0.0982475 0.875584 -0.142558 0 0 255 0.915701 -0.302341 0.264729 
0.365697 2.27931 -0.123528 0 0 255 0.924026 -0.331521 0.190448 
-0.394826 -0.0198298 -0.152598 0 0 255 0.921197 -0.30229 0.244984 
0.131892 1.56365 -0.142227 0 0 255 0.91163 -0.304849 0.275677 
0.0347393 1.27281 -0.142784 0 0 255 0.91163 -0.304849 0.275677 
0.328836 2.16945 -0.123199 0 0 255 0.914863 -0.31172 0.256626 
-0.00812822 1.13464 -0.153897 0 0 255 0.91163 -0.304849 0.275677 
-0.516706 -0.388676 -0.157689 0 0 255 0.916008 -0.311124 0.253241 
-0.127043 0.80625 -0.124093 0 0 255 0.913331 -0.303476 0.271531 
-0.250928 0.422076 -0.139493 0 0 255 0.91163 -0.304849 0.275677 
-0.445443 -0.189458 -0.172873 0 0 255 0.897438 -0.29519 0.327824 
-0.155614 0.722443 -0.122353 0 0 255 0.93402 -0.30206 0.190701 
0.243513 1.90321 -0.135622 0 0 255 0.921248 -0.291753 0.25726 
-0.357928 0.073043 -0.171809 0 0 255 0.907922 -0.303619 0.288951 
0.102799 1.47902 -0.139676 0 0 255 0.913554 -0.315169 0.257073 
-0.0789946 0.939394 -0.135631 0 0 255 0.913948 -0.306587 0.265902 
-0.282881 0.314705 -0.152613 0 0 255 0.91163 -0.304849 0.275677 
-0.11992 0.826876 -0.124822 0 0 255 0.91163 -0.304849 0.275677 
-0.37523 0.0707777 -0.117216 0 0 255 0.936739 -0.312246 0.158186 
-0.544995 -0.443917 -0.125337 0 0 255 0.905456 -0.386003 0.176499 
-0.446528 -0.155778 -0.132101 0 0 255 0.915847 -0.313963 0.250303 
0.0926384 1.44371 -0.145135 0 0 255 0.91163 -0.304849 0.275677 
0.0574604 1.35604 -0.125854 0 0 255 0.922337 -0.310306 0.230227 
0.00343323 1.17073 -0.152188 0 0 255 0.91163 -0.304849 0.275677 
-0.280123 0.316309 -0.159944 0 0 255 0.91163 -0.304849 0.275677 
0.318161 2.14137 -0.118979 0 0 255 0.92431 -0.313783 0.217234 
-0.494097 -0.340503 -0.179103 0 0 255 0.903989 -0.299363 0.305262 
0.346171 2.2286 -0.115084 0 0 255 0.937074 -0.311443 0.15778 
-0.321771 0.230939 -0.116772 0 0 255 0.909497 -0.37096 0.187628 
0.0174543 1.2129 -0.151894 0 0 255 0.91163 -0.304849 0.275677 
0.312221 2.12047 -0.122448 0 0 255 0.919004 -0.303458 0.251683 
-0.410216 -0.0667415 -0.153614 0 0 255 0.905815 -0.306832 0.292151 
-0.384486 -0.00742397 -0.173024 0 0 255 0.9117 -0.301955 0.278615 
0.408497 2.40695 -0.123816 0 0 255 0.919346 -0.309326 0.243145 
-0.434135 -0.102686 -0.114373 0 0 255 0.927154 -0.329624 0.178137 
-0.34153 0.158 -0.13211 0 0 255 0.915012 -0.316568 0.250074 
-0.0202619 1.12259 -0.127158 0 0 255 0.91454 -0.317408 0.250738 
0.265823 1.97739 -0.127336 0 0 255 0.917428 -0.304846 0.255724 
0.531593 2.78205 -0.115838 0 0 255 0.931994 -0.285362 0.22351 
-0.368798 0.0886519 -0.118702 0 0 255 0.921753 -0.333763 0.197417 
0.534236 2.79035 -0.115393 0 0 255 0.915263 -0.345193 0.207689 
-0.172302 0.63762 -0.160947 0 0 255 0.91163 -0.304849 0.275677 
0.175511 1.70013 -0.135461 0 0 255 0.912036 -0.306921 0.272011 
-0.527461 -0.428479 -0.16615 0 0 255 0.686417 -0.623866 0.373661 
0.0883965 1.45386 -0.119926 0 0 255 0.931683 -0.32352 0.165231 
-0.145591 0.760252 -0.113681 0 0 255 0.937067 -0.314185 0.152291 
-0.153241 0.725083 -0.127268 0 0 255 0.912121 -0.30404 0.274946 
-0.186134 0.59336 -0.164175 0 0 255 0.91163 -0.304849 0.275677 
-0.343804 0.152361 -0.130834 0 0 255 0.927584 -0.295977 0.228002 
-0.302124 0.256647 -0.153218 0 0 255 0.912925 -0.275188 0.301396 
0.214972 1.82028 -0.13301 0 0 255 0.920795 -0.321207 0.221276 
-0.26908 0.344501 -0.165254 0 0 255 0.91163 -0.304849 0.275677 
-0.177817 0.646314 -0.133147 0 0 255 0.91163 -0.304849 0.275677 
-0.284133 0.310593 -0.153019 0 0 255 0.91163 -0.304849 0.275677 
0.0736474 1.39588 -0.13528 0 0 255 0.921674 -0.305313 0.239377 
-0.372972 0.07268 -0.122565 0 0 255 0.91163 -0.304849 0.275677 
-0.122697 0.825362 -0.117333 0 0 255 0.936796 -0.320447 0.140451 
-0.483709 -0.253588 -0.11741 0 0 255 0.916312 -0.313133 0.249641 
-0.519207 -0.41118 -0.174286 0 0 255 0.898879 -0.324307 0.29469 
0.4522 2.54677 -0.113646 0 0 255 0.921516 -0.312887 0.230022 
0.14134 1.60087 -0.132305 0 0 255 0.916617 -0.307464 0.255498 
0.00477794 1.19454 -0.130339 0 0 255 0.914425 -0.305774 0.265198 
-0.204583 0.558275 -0.142036 0 0 255 0.916833 -0.320964 0.237484 
-0.14622 0.752949 -0.119668 0 0 255 0.912121 -0.30404 0.274946 
0.208316 1.80066 -0.132711 0 0 255 0.917911 -0.320335 0.234146 
-0.127682 0.798669 -0.130355 0 0 255 0.912036 -0.306921 0.272011 
-0.469878 -0.251156 -0.160366 0 0 255 0.91163 -0.304849 0.275677 
-0.288132 0.328879 -0.119633 0 0 255 0.959658 -0.225724 0.167643 
-0.254826 0.390952 -0.160997 0 0 255 0.91163 -0.304849 0.275677 
0.149758 1.63527 -0.122103 0 0 255 0.931125 -0.306641 0.197427 
-0.470164 -0.257782 -0.166739 0 0 255 0.903141 -0.310869 0.296136 
-0.413013 -0.0694321 -0.147357 0 0 255 0.919507 -0.324616 0.221654 
-0.2284 0.50901 -0.11784 0 0 255 0.925582 -0.3236 0.196421 
0.0127447 1.20044 -0.150112 0 0 255 0.907969 -0.297767 0.294833 
-0.244551 0.421383 -0.161302 0 0 255 0.91163 -0.304849 0.275677 
-0.454597 -0.218976 -0.17526 0 0 255 0.889646 -0.30755 0.337555 
-0.454154 -0.18588 -0.140175 0 0 255 0.915325 -0.300273 0.26836 
-0.271853 0.333509 -0.168241 0 0 255 0.90958 -0.30806 0.27886 
0.254145 1.94331 -0.126433 0 0 255 0.926582 -0.305077 0.219939 
0.0352294 1.29264 -0.122504 0 0 255 0.916373 -0.321813 0.238113 
-0.174502 0.670373 -0.11752 0 0 255 0.93363 -0.316742 0.167362 
-0.120411 0.833022 -0.116415 0 0 255 0.928947 -0.316207 0.192535 
-0.48501 -0.271461 -0.132853 0 0 255 0.91163 -0.304849 0.275677 
-0.49739 -0.319156 -0.144666 0 0 255 0.923783 -0.308877 0.22632 
-0.225046 0.505638 -0.13263 0 0 255 0.917045 -0.296054 0.267171 
0.270651 1.99548 -0.123295 0 0 255 0.913943 -0.330637 0.235344 
0.106227 1.49177 -0.136904 0 0 255 0.923326 -0.301116 0.238324 
-0.467877 -0.234626 -0.148718 0 0 255 0.913131 -0.309216 0.265664 
-0.377378 0.0122119 -0.174796 0 0 255 0.901825 -0.30848 0.302576 
0.297063 2.07306 -0.12478 0 0 255 0.931882 -0.311559 0.185817 
-0.345288 0.143103 -0.136157 0 0 255 0.923326 -0.301116 0.238324 
-0.489636 -0.29279 -0.141138 0 0 255 0.931778 -0.28334 0.226954 
-0.457773 -0.17771 -0.119213 0 0 255 0.923715 -0.324932 0.202905 
-0.268288 0.382157 -0.126284 0 0 255 0.916862 -0.30177 0.261342 
0.411867 2.4226 -0.117665 0 0 255 0.931707 -0.308706 0.19137 
0.199204 1.78178 -0.123494 0 0 255 0.912121 -0.30404 0.274946 
-0.139921 0.732587 -0.162939 0 0 255 0.91163 -0.304849 0.275677 
-0.175222 0.668646 -0.117052 0 0 255 0.937868 -0.304359 0.16664 
0.085208 1.42355 -0.142881 0 0 255 0.915181 -0.313735 0.253012 
-0.244369 0.434916 -0.146959 0 0 255 0.91163 -0.304849 0.275677 
-0.432957 -0.115341 -0.132235 0 0 255 0.91163 -0.304849 0.275677 
-0.278324 0.350974 -0.127602 0 0 255 0.917428 -0.304846 0.255724 
0.286431 2.04149 -0.124561 0 0 255 0.927187 -0.296757 0.228602 
0.10863 1.4918 -0.144806 0 0 255 0.91163 -0.304849 0.275677 
-0.17333 0.663134 -0.12938 0 0 255 0.91163 -0.304849 0.275677 
-0.283139 0.301202 -0.166671 0 0 255 0.91163 -0.304849 0.275677 
-0.269933 0.383954 -0.118872 0 0 255 0.928441 -0.316035 0.19524 
-0.39141 0.00194649 -0.139827 0 0 255 0.929195 -0.284274 0.236188 
0.0219598 1.24127 -0.135441 0 0 255 0.929564 -0.310792 0.198288 
0.506947 2.70789 -0.116397 0 0 255 0.93363 -0.316742 0.167362 
-0.0958482 0.898872 -0.12476 0 0 255 0.927728 -0.319567 0.192866 
-0.0776411 0.946296 -0.132477 0 0 255 0.929543 -0.294802 0.221454 
-0.0990179 0.870108 -0.146062 0 0 255 0.912869 -0.314933 0.259783 
-0.150825 0.707301 -0.154876 0 0 255 0.91163 -0.304849 0.275677 
0.248041 1.92152 -0.130341 0 0 255 0.920253 -0.316292 0.230421 
0.0882811 1.43193 -0.143762 0 0 255 0.918899 -0.295721 0.2611 
-0.16765 0.675446 -0.134529 0 0 255 0.908999 -0.322454 0.264091 
-0.0955778 0.887273 -0.13846 0 0 255 0.914609 -0.300038 0.271049 
-0.280986 0.336557 -0.134736 0 0 255 0.91163 -0.304849 0.275677 
-0.0665753 0.961567 -0.152131 0 0 255 0.911002 -0.298809 0.284233 
-0.229725 0.471271 -0.155141 0 0 255 0.910225 -0.3112 0.273213 
-0.324506 0.222911 -0.116612 0 0 255 0.929195 -0.284274 0.236188 
-0.364446 0.0768596 -0.146086 0 0 255 0.91163 -0.304849 0.275677 
-0.527499 -0.425324 -0.162542 0 0 255 0.91163 -0.304849 0.275677 
-0.421166 -0.123269 -0.1799 0 0 255 0.905815 -0.306832 0.292151 
-0.553972 -0.474103 -0.129044 0 0 255 -0.814355 0.530026 -0.236426 
-0.264369 0.385355 -0.135686 0 0 255 0.91163 -0.304849 0.275677 
-0.463427 -0.229131 -0.157334 0 0 255 0.91163 -0.304849 0.275677 
-0.325057 0.197179 -0.143207 0 0 255 0.918685 -0.301421 0.25527 
-0.24519 0.418555 -0.162315 0 0 255 0.899068 -0.312526 0.306601 
0.288105 2.04635 -0.124715 0 0 255 0.912848 -0.304283 0.272253 
-0.171071 0.644966 -0.156899 0 0 255 0.91163 -0.304849 0.275677 
-0.53587 -0.467531 -0.181522 0 0 255 -0.685495 0.659689 -0.30807 
-0.185232 0.641686 -0.113788 0 0 255 0.939504 -0.292993 0.177447 
-0.275986 0.331523 -0.156793 0 0 255 0.91163 -0.304849 0.275677 
-0.48144 -0.286705 -0.161468 0 0 255 0.91163 -0.304849 0.275677 
0.165475 1.68955 -0.11403 0 0 255 0.930124 -0.305351 0.204036 
-0.165035 0.66475 -0.154972 0 0 255 0.91163 -0.304849 0.275677 
-0.36123 0.0666784 -0.16794 0 0 255 0.905862 -0.300975 0.298039 
0.312407 2.12911 -0.113522 0 0 255 0.927038 -0.324956 0.187096 
0.125111 1.55997 -0.123918 0 0 255 0.923364 -0.309691 0.226916 
-0.272317 0.335994 -0.163964 0 0 255 0.91163 -0.304849 0.275677 
0.111627 1.50231 -0.143093 0 0 255 0.913008 -0.312077 0.262726 
0.0516065 1.32537 -0.140405 0 0 255 0.91825 -0.309927 0.2465 
-0.48946 -0.303728 -0.1538 0 0 255 0.91163 -0.304849 0.275677 
0.089351 1.45113 -0.126087 0 0 255 0.91828 -0.292639 0.26669 
0.148267 1.62147 -0.132425 0 0 255 0.91163 -0.304849 0.275677 
-0.436651 -0.128129 -0.134166 0 0 255 0.934864 -0.301435 0.187528 
-0.307592 0.251567 -0.140783 0 0 255 0.920121 -0.341678 0.191397 
0.461659 2.57484 -0.113864 0 0 255 0.925907 -0.320887 0.199317 
-0.338155 0.131599 -0.172398 0 0 255 0.907173 -0.300437 0.294575 
-0.437151 -0.130687 -0.135339 0 0 255 0.91163 -0.304849 0.275677 
-0.0543987 0.993522 -0.157027 0 0 255 0.912925 -0.301396 0.275188 
0.312145 2.13389 -0.0951806 0 0 255 0.942883 -0.317841 0.0997408 
-0.192557 0.626323 -0.0920126 0 0 255 0.944239 -0.315627 0.0937636 
0.574764 2.93218 -0.0494764 0 0 255 0.999025 0.027952 0.0341636 
0.280607 2.04698 -0.0699927 0 0 255 0.944239 -0.315627 0.0937636 
-0.0199255 1.14075 -0.0973153 0 0 255 0.919558 -0.339682 0.197556 
0.540515 2.82875 -0.0531094 0 0 255 0.95428 -0.289761 0.0734061 
0.440088 2.5236 -0.0701788 0 0 255 0.94447 -0.315704 0.0911447 
0.372419 2.32039 -0.0734698 0 0 255 0.94447 -0.315704 0.0911447 
0.0589476 1.3842 -0.0709095 0 0 255 0.944239 -0.315627 0.0937636 
-0.00134998 1.1924 -0.110551 0 0 255 0.932207 -0.291051 0.215125 
0.222589 1.86545 -0.0978234 0 0 255 0.931882 -0.311559 0.185817 
0.114076 1.53955 -0.103177 0 0 255 0.94447 -0.315704 0.0911447 
0.267788 1.99827 -0.105603 0 0 255 0.933124 -0.326662 0.150237 
-0.150157 0.753884 -0.0891567 0 0 255 0.944239 -0.315627 0.0937636 
-0.267508 0.401619 -0.0943517 0 0 255 0.940016 -0.321408 0.114308 
0.349965 2.24232 -0.110958 0 0 255 0.928812 -0.330028 0.168495 
-0.272897 0.380598 -0.111173 0 0 255 0.939942 -0.315117 0.131186 
0.0253243 1.28255 -0.0748576 0 0 255 0.943904 -0.318155 0.0884497 
0.518665 2.75122 -0.0949606 0 0 255 0.94447 -0.315704 0.0911447 
0.409662 2.42744 -0.0880419 0 0 255 0.943952 -0.312876 0.105179 
0.446506 2.5447 -0.0636298 0 0 255 0.94447 -0.315704 0.0911447 
-0.204025 0.591536 -0.0937633 0 0 255 0.944239 -0.315627 0.0937636 
0.425782 2.4703 -0.106292 0 0 255 0.937612 -0.317997 0.140574 
0.401256 2.4001 -0.0956441 0 0 255 0.939149 -0.318471 0.128743 
0.475603 2.62668 -0.0807101 0 0 255 0.945258 -0.31421 0.0880839 
0.242359 1.92439 -0.0983374 0 0 255 0.938336 -0.320903 0.128632 
0.113409 1.53595 -0.108685 0 0 255 0.93799 -0.282092 0.201494 
0.159079 1.67875 -0.0871164 0 0 255 0.944239 -0.315627 0.0937636 
0.364879 2.30003 -0.0660071 0 0 255 0.945071 -0.317638 0.0771219 
0.230151 1.88601 -0.104803 0 0 255 0.936194 -0.293517 0.19336 
0.512181 2.74074 -0.0645014 0 0 255 0.94447 -0.315704 0.0911447 
0.20924 1.82582 -0.0968919 0 0 255 0.937401 -0.313379 0.1519 
0.0468102 1.34452 -0.0825674 0 0 255 0.944977 -0.314992 0.0883033 
0.433137 2.50345 -0.0680576 0 0 255 0.94447 -0.315704 0.0911447 
0.0460575 1.3401 -0.0900164 0 0 255 0.94447 -0.315704 0.0911447 
-0.388216 0.0364018 -0.109541 0 0 255 0.912869 -0.364291 0.184288 
0.210614 1.83077 -0.0940177 0 0 255 0.941947 -0.314876 0.116571 
-0.186082 0.646739 -0.088376 0 0 255 0.938708 -0.328079 0.105789 
-0.166414 0.70026 -0.106398 0 0 255 0.928126 -0.311253 0.204216 
-0.240861 0.479071 -0.101861 0 0 255 0.937372 -0.29215 0.18969 
0.27905 2.04279 -0.0684444 0 0 255 0.94447 -0.315704 0.0911447 
-0.0652537 1.00115 -0.111424 0 0 255 0.928398 -0.308527 0.207093 
0.388044 2.35717 -0.107435 0 0 255 0.942511 -0.299705 0.147818 
0.514805 2.75091 -0.0565072 0 0 255 0.943027 -0.322234 0.0828601 
0.508843 2.73074 -0.0645558 0 0 255 0.94689 -0.30685 0.0961376 
0.0817255 1.45072 -0.0762768 0 0 255 0.94447 -0.315704 0.0911447 
-0.108697 0.879501 -0.0833444 0 0 255 0.951475 -0.30175 0.06035 
-0.0854668 0.946184 -0.0927612 0 0 255 0.941124 -0.300996 0.153903 
0.509377 2.73643 -0.0505484 0 0 255 0.944899 -0.316719 0.0827937 
0.384799 2.35336 -0.0872716 0 0 255 0.94447 -0.315704 0.0911447 
-0.0494472 1.05628 -0.0843993 0 0 255 0.936208 -0.31938 0.146668 
0.556239 2.86122 -0.102868 0 0 255 0.937914 -0.294221 0.183715 
0.320068 2.15665 -0.0983507 0 0 255 0.944257 -0.313869 0.0993257 
0.324838 2.16875 -0.105718 0 0 255 0.938621 -0.316496 0.137193 
0.0751664 1.42221 -0.106773 0 0 255 0.935037 -0.304269 0.182006 
0.437842 2.51211 -0.086541 0 0 255 0.941215 -0.313738 0.125226 
0.124559 1.57265 -0.097127 0 0 255 0.941644 -0.315672 0.116866 
0.0422429 1.32635 -0.0980307 0 0 255 0.935177 -0.315399 0.161142 
0.116028 1.54806 -0.0940358 0 0 255 0.94447 -0.315704 0.0911447 
0.436067 2.51762 -0.0495194 0 0 255 0.94469 -0.316649 0.0854032 
0.450266 2.56208 -0.0425937 0 0 255 0.942497 -0.334192 -0.00375497 
0.148642 1.64656 -0.0905251 0 0 255 0.943037 -0.31167 0.116375 
0.453638 2.55996 -0.0843417 0 0 255 0.94447 -0.315704 0.0911447 
0.532773 2.79124 -0.102312 0 0 255 0.941784 -0.321032 0.0999064 
0.187268 1.75721 -0.106966 0 0 255 0.939542 -0.327436 0.100236 
0.11787 1.55066 -0.103971 0 0 255 0.934112 -0.327831 0.141283 
0.249467 1.95736 -0.0582041 0 0 255 0.94339 -0.318874 0.0912958 
0.281926 2.04269 -0.0981843 0 0 255 0.94447 -0.315704 0.0911447 
0.0910553 1.47075 -0.103176 0 0 255 0.921478 -0.364434 0.134411 
0.505793 2.72437 -0.0551613 0 0 255 0.944977 -0.314992 0.0883033 
0.532378 2.78764 -0.110601 0 0 255 0.946857 -0.297813 0.121529 
-0.216028 0.556419 -0.0911616 0 0 255 0.935568 -0.312775 0.163966 
0.587736 2.95858 -0.0918421 0 0 255 0.939265 0.0779418 0.334225 
0.393265 2.37194 -0.110292 0 0 255 0.933237 -0.319374 0.164526 
0.487511 2.6723 -0.0463518 0 0 255 0.949523 -0.308819 0.0551005 
-0.219107 0.54666 -0.0930617 0 0 255 0.932549 -0.330993 0.144209 
0.544805 2.84132 -0.0539645 0 0 255 0.94447 -0.315704 0.0911447 
0.447353 2.53378 -0.109685 0 0 255 0.940412 -0.301642 0.156963 
0.130692 1.58951 -0.102167 0 0 255 0.934445 -0.31425 0.167508 
0.277565 2.04135 -0.0581455 0 0 255 0.946436 -0.312861 0.0798515 
-0.0857871 0.948397 -0.0819057 0 0 255 0.944239 -0.315627 0.0937636 
0.465993 2.59385 -0.0947636 0 0 255 0.934651 -0.333318 0.123804 
-0.171993 0.688893 -0.0882232 0 0 255 0.944257 -0.313869 0.0993257 
-0.0291104 1.10891 -0.112319 0 0 255 0.925206 -0.302717 0.228814 
0.235584 1.913 -0.0679923 0 0 255 0.94447 -0.315704 0.0911447 
-0.0393027 1.08284 -0.0972982 0 0 255 0.946617 -0.2757 0.16705 
0.348561 2.2528 -0.0607206 0 0 255 0.94447 -0.315704 0.0911447 
0.551027 2.86283 -0.044002 0 0 255 0.945709 -0.323699 0.0291964 
0.151559 1.65942 -0.0763523 0 0 255 0.94447 -0.315704 0.0911447 
-0.149536 0.74907 -0.111995 0 0 255 0.943274 -0.297233 0.147938 
-0.0630055 1.00968 -0.105223 0 0 255 0.92413 -0.324082 0.202374 
0.518133 2.75059 -0.091682 0 0 255 0.94447 -0.315704 0.0911447 
0.5142 2.73548 -0.103144 0 0 255 0.937505 -0.306995 0.163823 
0.16766 1.69727 -0.111512 0 0 255 0.925354 -0.34474 0.157715 
0.132986 1.60316 -0.0789172 0 0 255 0.943824 -0.319873 0.0829301 
-0.0357901 1.09335 -0.097262 0 0 255 0.944239 -0.315627 0.0937636 
0.0668854 1.40207 -0.0909689 0 0 255 0.936328 -0.312109 0.160867 
-0.190044 0.630964 -0.101833 0 0 255 0.94264 -0.281283 0.179747 
0.371475 2.3203 -0.0641154 0 0 255 0.947937 -0.309025 0.0769303 
0.157108 1.67539 -0.0784567 0 0 255 0.944239 -0.315627 0.0937636 
0.37208 2.31856 -0.0762491 0 0 255 0.94447 -0.315704 0.0911447 
-0.133309 0.797641 -0.111757 0 0 255 0.935486 -0.320071 0.149733 
0.185744 1.75098 -0.112682 0 0 255 0.928571 -0.29539 0.224723 
-0.10981 0.869449 -0.106377 0 0 255 0.934059 -0.316888 0.164671 
0.40902 2.43182 -0.066475 0 0 255 0.952075 -0.302991 0.0418355 
0.291986 2.0782 -0.0795636 0 0 255 0.943095 -0.308087 0.125118 
0.134616 1.60319 -0.0954674 0 0 255 0.937941 -0.317185 0.140215 
0.237286 1.90601 -0.109332 0 0 255 0.928947 -0.316207 0.192535 
0.455456 2.56072 -0.10037 0 0 255 0.940731 -0.316269 0.12247 
0.110643 1.53855 -0.0714643 0 0 255 0.961482 -0.266587 0.0669626 
-0.281618 0.35593 -0.106394 0 0 255 0.943998 -0.302995 0.130624 
-0.32553 0.225332 -0.104168 0 0 255 0.942071 -0.318465 0.105267 
0.547114 2.84195 -0.0754367 0 0 255 0.94447 -0.315704 0.0911447 
0.537727 2.81667 -0.0659379 0 0 255 0.944651 -0.32011 0.0718614 
0.259103 1.97642 -0.0915381 0 0 255 0.944241 -0.312091 0.104916 
0.292797 2.08252 -0.0730758 0 0 255 0.944239 -0.315627 0.0937636 
-0.0238853 1.12726 -0.102982 0 0 255 0.939801 -0.323098 0.111275 
0.563396 2.88891 -0.0812817 0 0 255 0.945071 -0.317638 0.0771219 
0.570308 2.90572 -0.0944691 0 0 255 0.940089 -0.313363 0.134298 
0.300412 2.10818 -0.0631501 0 0 255 0.945772 -0.31957 0.0582213 
-0.0142214 1.1589 -0.0935308 0 0 255 0.943553 -0.305544 0.127871 
0.309606 2.12248 -0.108262 0 0 255 0.944617 -0.302331 0.127651 
0.0685869 1.40774 -0.0889718 0 0 255 0.94447 -0.315704 0.0911447 
0.335824 2.21636 -0.0551346 0 0 255 0.945807 -0.320416 0.0527593 
0.0312202 1.29299 -0.0994672 0 0 255 0.934112 -0.327831 0.141283 
0.118804 1.55902 -0.0848947 0 0 255 0.94447 -0.315704 0.0911447 
0.520769 2.75584 -0.100674 0 0 255 0.936977 -0.300331 0.178538 
0.566766 2.89788 -0.0850621 0 0 255 0.94447 -0.315704 0.0911447 
0.118298 1.56211 -0.0691314 0 0 255 0.944239 -0.315627 0.0937636 
0.485014 2.65124 -0.0929221 0 0 255 0.938604 -0.3083 0.154835 
-0.233046 0.503559 -0.0979971 0 0 255 0.94263 -0.317755 0.102373 
-0.098378 0.908535 -0.089538 0 0 255 0.940843 -0.318088 0.116767 
-0.467971 -0.201885 -0.109224 0 0 255 0.928126 -0.311253 0.204216 
-0.0403598 1.08166 -0.0904969 0 0 255 0.944239 -0.315627 0.0937636 
-0.138071 0.791099 -0.0854282 0 0 255 0.944239 -0.315627 0.0937636 
0.522077 2.76672 -0.0768145 0 0 255 0.943325 -0.320599 0.0857568 
0.284211 2.04534 -0.112497 0 0 255 0.93363 -0.316742 0.167362 
0.35667 2.27711 -0.0604726 0 0 255 0.943229 -0.322303 0.0802468 
-0.479367 -0.23632 -0.110503 0 0 255 0.932028 -0.318084 0.173627 
0.080418 1.44576 -0.0798651 0 0 255 0.9426 -0.315978 0.107992 
0.519816 2.75712 -0.0865506 0 0 255 0.94447 -0.315704 0.0911447 
0.0504679 1.3505 -0.0995276 0 0 255 0.938157 -0.319055 0.13441 
0.415261 2.45168 -0.0623691 0 0 255 0.948959 -0.305906 0.0768019 
0.541195 2.83433 -0.0409851 0 0 255 0.950645 -0.309367 0.0237974 
0.360284 2.28142 -0.0827011 0 0 255 0.943228 -0.309937 0.119413 
0.527966 2.77986 -0.0920931 0 0 255 0.944502 -0.313951 0.0967021 
0.430343 2.49502 -0.0683161 0 0 255 0.94447 -0.315704 0.0911447 
-0.0617913 1.02079 -0.079612 0 0 255 0.944239 -0.315627 0.0937636 
0.0282551 1.28688 -0.0900335 0 0 255 0.945024 -0.313246 0.0938416 
0.349575 2.24802 -0.0874796 0 0 255 0.945845 -0.310005 0.0962994 
-0.159017 0.726879 -0.0909584 0 0 255 0.943523 -0.309154 0.119111 
0.351702 2.25577 -0.0827073 0 0 255 0.937517 -0.329543 0.111641 
-0.0185885 1.14649 -0.0913369 0 0 255 0.944239 -0.315627 0.0937636 
0.172468 1.71839 -0.0884171 0 0 255 0.942821 -0.314274 0.110999 
-0.123923 0.833999 -0.0833257 0 0 255 0.945039 -0.311479 0.0994081 
0.453597 2.56529 -0.0656956 0 0 255 0.94447 -0.315704 0.0911447 
-0.0700207 0.994301 -0.0860827 0 0 255 0.944239 -0.315627 0.0937636 
-0.349387 0.15348 -0.106035 0 0 255 0.938198 -0.303575 0.166211 
-0.39002 0.0312643 -0.108672 0 0 255 0.946949 -0.288786 0.141035 
0.397656 2.39009 -0.093073 0 0 255 0.94447 -0.315704 0.0911447 
0.287682 2.06139 -0.0930576 0 0 255 0.933907 -0.337508 0.117924 
-0.165994 0.703323 -0.100204 0 0 255 0.937114 -0.328598 0.117646 
0.548379 2.84203 -0.0881331 0 0 255 0.945039 -0.311479 0.0994081 
0.578249 2.92692 -0.103152 0 0 255 0.941841 -0.309443 0.131074 
-0.00152778 1.19281 -0.107354 0 0 255 0.935395 -0.33436 0.115063 
-0.0425938 1.0765 -0.0853077 0 0 255 0.949256 -0.306922 0.0686366 
0.235401 1.90502 -0.0934484 0 0 255 0.94447 -0.315704 0.0911447 
0.260707 1.97749 -0.10429 0 0 255 0.940723 -0.294404 0.168426 
0.541242 2.8229 -0.0805937 0 0 255 0.94263 -0.317755 0.102373 
0.390251 2.37201 -0.07921 0 0 255 0.94447 -0.315704 0.0911447 
0.370332 2.30854 -0.0926645 0 0 255 0.935177 -0.308955 0.173181 
0.221296 1.87123 -0.0647892 0 0 255 0.949488 -0.307907 0.0605508 
-0.180813 0.662479 -0.0884027 0 0 255 0.943952 -0.312876 0.105179 
0.275957 2.0256 -0.0956236 0 0 255 0.941051 -0.311883 0.130964 
-0.0612204 1.01994 -0.088352 0 0 255 0.94447 -0.315704 0.0911447 
-0.550072 -0.470918 1.28027 0 0 255 0.0294159 0.631743 0.77462 
-0.52553 -0.469717 1.27832 0 0 255 0.0238643 0.672411 0.739793 
-0.536424 -0.45376 1.25913 0 0 255 -0.309197 0.827142 0.469289 
-0.54832 -0.465847 1.27407 0 0 255 0.00966974 0.777723 0.628533 
-0.579213 -0.438109 1.24003 0 0 255 0.523654 0.839322 -0.146033 
-0.592414 -0.445895 1.25015 0 0 255 0.333445 0.851447 0.404786 
-0.536488 -0.451285 1.25599 0 0 255 -0.278119 0.912987 -0.298504 
-0.608678 -0.429668 1.22927 0 0 255 -0.429093 0.707424 0.561632 
-0.608024 -0.441637 1.24484 0 0 255 -0.131846 0.897401 0.421056 
-0.649956 -0.428593 1.22582 0 0 255 -0.12466 0.991665 0.0325688 
-0.645854 -0.442503 1.24421 0 0 255 0.175289 0.960793 -0.214828 
-0.69923 -0.398646 1.18145 0 0 255 0.0710582 0.238107 0.968636 
-0.696708 -0.397516 1.18019 0 0 255 0.152511 -0.40337 0.902238 
-0.744098 -0.416328 1.19971 0 0 255 0.286908 0.957603 0.0260826 
-0.730088 -0.412688 1.19656 0 0 255 0.309484 0.761685 0.569259 
-0.715101 -0.400628 1.18229 0 0 255 -0.337647 0.900883 0.272771 
-0.76056 -0.381115 1.14827 0 0 255 0.209969 0.305794 0.928656 
-0.761094 -0.409815 1.18892 0 0 255 0.341453 0.938671 -0.0480371 
-0.779765 -0.374535 1.1351 0 0 255 -0.0700721 -0.160334 0.984572 
-0.808245 -0.369474 1.12142 0 0 255 0.693267 0.661245 0.286593 
-0.549595 -0.47563 0.166081 0 0 255 0.297091 0.954848 0.0012226 
-0.526187 -0.482914 0.536064 0 0 255 0.297091 0.954848 0.0012226 
-0.51369 -0.486818 1.07209 0 0 255 0.300017 0.953933 -0.00122456 
-0.547277 -0.476349 0.154091 0 0 255 0.0552479 0.971136 0.232041 
-0.518025 -0.485461 0.813747 0 0 255 0.297786 0.954632 -0.00122546 
-0.540876 -0.478343 0.290488 0 0 255 0.297091 0.954848 -0.0012226 
-0.539373 -0.478812 0.353868 0 0 255 0.297091 0.954848 0.0012226 
-0.544083 -0.477348 0.32193 0 0 255 0.297091 0.954848 0.0012226 
-0.543366 -0.47757 0.297549 0 0 255 0.297091 0.954848 0.0012226 
-0.530062 -0.481718 0.698414 0 0 255 0.297091 0.954848 0.0012226 
-0.520964 -0.484548 0.812027 0 0 255 0.297091 0.954848 -0.0012226 
-0.518804 -0.485221 0.860634 0 0 255 0.297091 0.954848 0.0012226 
-0.52544 -0.483154 0.723271 0 0 255 0.297091 0.954848 -0.0012226 
-0.536144 -0.479815 0.34803 0 0 255 0.297091 0.954848 0.0012226 
-0.513276 -0.48694 0.742878 0 0 255 0.297091 0.954848 0.0012226 
-0.516073 -0.486063 0.355279 0 0 255 0.300017 0.953933 0.00122456 
-0.525371 -0.483165 0.358288 0 0 255 0.297091 0.954848 -0.0012226 
-0.517755 -0.485541 0.523079 0 0 255 0.297091 0.954848 0.0012226 
-0.520556 -0.484668 0.523048 0 0 255 0.297091 0.954848 -0.0012226 
-0.519159 -0.485099 0.182866 0 0 255 -0.299787 0.843441 0.445797 
-0.525451 -0.48314 0.360957 0 0 255 0.297786 0.954632 0.00122546 
-0.513894 -0.486743 0.464959 0 0 255 0.297091 0.954848 0.0012226 
-0.519493 -0.485 0.578647 0 0 255 0.297091 0.954848 0.0012226 
-0.517485 -0.485627 0.657326 0 0 255 0.297091 0.954848 0.0012226 
-0.509572 -0.488096 0.892643 0 0 255 0.297091 0.954848 0.0012226 
-0.522531 -0.484051 0.430492 0 0 255 0.297091 0.954848 -0.0012226 
-0.525787 -0.483036 0.341355 0 0 255 0.297091 0.954848 -0.0012226 
-0.510464 -0.487819 1.00549 0 0 255 0.297091 0.954848 0.0012226 
-0.519663 -0.484948 0.638297 0 0 255 0.297091 0.954848 -0.0012226 
-0.518156 -0.485418 0.662366 0 0 255 0.297091 0.954848 0.0012226 
-0.495448 -0.492523 0.631856 0 0 255 0.300017 0.953933 0.00122456 
-0.50499 -0.489529 1.19695 0 0 255 0.297091 0.954848 -0.0012226 
-0.503553 -0.48998 0.996373 0 0 255 0.300017 0.953933 -0.00122456 
-0.493431 -0.493156 0.527314 0 0 255 0.300017 0.953933 0.00122456 
-0.499813 -0.491153 0.963535 0 0 255 0.297091 0.954848 -0.0012226 
-0.492772 -0.493363 0.247332 0 0 255 0.300017 0.953933 0.00122456 
-0.510958 -0.487659 0.237642 0 0 255 0.297091 0.954848 0.0012226 
-0.49823 -0.49165 0.749297 0 0 255 0.300017 0.953933 0.00122456 
-0.486024 -0.49548 0.294301 0 0 255 0.300017 0.953933 -0.00122456 
-0.504863 -0.48957 0.455742 0 0 255 0.300017 0.953933 -0.00122456 
-0.498638 -0.491523 0.449123 0 0 255 0.300017 0.953933 -0.00122456 
-0.489284 -0.494457 0.331154 0 0 255 0.300017 0.953933 -0.00122456 
-0.494107 -0.492945 0.228714 0 0 255 0.0550751 0.985492 0.160538 
-0.488331 -0.494756 0.328734 0 0 255 0.300017 0.953933 0.00122456 
-0.501592 -0.490596 0.604164 0 0 255 0.297786 0.954632 0.00122546 
-0.506835 -0.488951 0.831863 0 0 255 0.297091 0.954848 0.0012226 
-0.502802 -0.490216 0.623612 0 0 255 0.297091 0.954848 -0.0012226 
-0.501366 -0.490666 0.820136 0 0 255 0.300017 0.953933 -0.00122456 
-0.512442 -0.487194 0.293193 0 0 255 0.297091 0.954848 0.0012226 
-0.507277 -0.488814 0.266592 0 0 255 0.297091 0.954848 -0.0012226 
-0.499142 -0.491363 1.00492 0 0 255 0.300017 0.953933 0.00122456 
-0.462842 -0.502823 0.627572 0 0 255 0.30072 0.953712 0.00122743 
-0.469546 -0.5007 0.560292 0 0 255 0.300017 0.953933 0.00122456 
-0.474738 -0.499084 1.09153 0 0 255 0.30072 0.953712 -0.00122743 
-0.477972 -0.498039 0.61877 0 0 255 0.300017 0.953933 0.00122456 
-0.446364 -0.508043 0.823272 0 0 255 0.30295 0.953006 0.00122652 
-0.489992 -0.494252 0.919603 0 0 255 0.300017 0.953933 0.00122456 
-0.486585 -0.495308 0.462781 0 0 255 0.300017 0.953933 -0.00122456 
-0.482656 -0.496566 0.804441 0 0 255 0.300017 0.953933 -0.00122456 
-0.474308 -0.499215 0.999526 0 0 255 0.300017 0.953933 0.00122456 
-0.433634 -0.512088 1.23358 0 0 255 0.30295 0.953006 0.00122652 
-0.456847 -0.504724 0.738312 0 0 255 0.30072 0.953712 -0.00122743 
-0.475884 -0.498724 1.14278 0 0 255 0.30072 0.953712 0.00122743 
-0.484387 -0.495997 0.32955 0 0 255 0.300017 0.953933 0.00122456 
-0.469123 -0.500846 0.806649 0 0 255 0.30295 0.953006 0.00122652 
-0.446316 -0.508062 0.895764 0 0 255 0.30072 0.953712 0.00122743 
-0.443557 -0.508954 1.313 0 0 255 0.249445 0.895936 0.367526 
-0.491727 -0.493716 1.179 0 0 255 0.300017 0.953933 -0.00122456 
-0.46155 -0.503254 1.10057 0 0 255 0.30072 0.953712 0.00122743 
-0.500299 -0.491007 1.21307 0 0 255 0.623944 0.617217 -0.47931 
-0.490004 -0.494243 0.816805 0 0 255 0.300017 0.953933 -0.00122456 
-0.472938 -0.499634 0.686883 0 0 255 0.30072 0.953712 0.00122743 
-0.42232 -0.515669 1.30317 0 0 255 0.00690774 0.763997 0.645183 
-0.435149 -0.511607 1.18722 0 0 255 0.30072 0.953712 0.00122743 
-0.459442 -0.503917 1.01402 0 0 255 0.30295 0.953006 0.00122652 
-0.493466 -0.49315 0.8471 0 0 255 0.300017 0.953933 0.00122456 
-0.459636 -0.503867 1.248 0 0 255 0.195935 0.661858 -0.72357 
-0.476091 -0.498643 0.809765 0 0 255 0.30295 0.953006 0.00122652 
-0.482491 -0.496632 1.09798 0 0 255 0.30072 0.953712 0.00122743 
-0.47835 -0.497927 0.783715 0 0 255 0.30295 0.953006 0.00122652 
-0.480096 -0.49737 0.669791 0 0 255 0.300017 0.953933 -0.00122456 
-0.480518 -0.497235 0.640774 0 0 255 0.300017 0.953933 0.00122456 
-0.435736 -0.511408 0.905955 0 0 255 0.30072 0.953712 0.00122743 
-0.478795 -0.497803 1.13681 0 0 255 0.300017 0.953933 -0.00122456 
-0.48888 -0.494587 0.559296 0 0 255 0.300017 0.953933 -0.00122456 
-0.449932 -0.506927 1.08067 0 0 255 0.30072 0.953712 0.00122743 
-0.482182 -0.496715 0.782466 0 0 255 0.300017 0.953933 0.00122456 
-0.425399 -0.514693 1.24392 0 0 255 0.323201 0.674011 -0.664267 
-0.497361 -0.491924 0.965948 0 0 255 0.300017 0.953933 0.00122456 
-0.495566 -0.492488 0.886863 0 0 255 0.300017 0.953933 0.00122456 
-0.464445 -0.502342 1.16287 0 0 255 0.30072 0.953712 0.00122743 
-0.454668 -0.505418 0.833113 0 0 255 0.30295 0.953006 0.00122652 
-0.440018 -0.510062 1.08875 0 0 255 0.30295 0.953006 -0.00122652 
-0.465376 -0.502051 1.22626 0 0 255 0.30295 0.953006 0.00122652 
-0.491886 -0.493661 1.09238 0 0 255 0.300017 0.953933 0.00122456 
-0.479531 -0.497565 1.026 0 0 255 0.300017 0.953933 0.00122456 
-0.484784 -0.495913 1.22921 0 0 255 0.898582 0.384272 -0.211861 
-0.460159 -0.503673 0.644177 0 0 255 0.300017 0.953933 0.00122456 
-0.442032 -0.509427 1.12198 0 0 255 0.30295 0.953006 0.00122652 
-0.462456 -0.502976 1.26668 0 0 255 -0.53876 0.835006 -0.111818 
-0.491093 -0.493919 1.24661 0 0 255 0.573998 0.40858 -0.70964 
-0.483861 -0.496176 0.610111 0 0 255 0.300017 0.953933 0.00122456 
-0.472116 -0.499906 0.938286 0 0 255 0.300017 0.953933 0.00122456 
-0.449862 -0.506934 0.764059 0 0 255 0.300017 0.953933 0.00122456 
-0.477159 -0.498305 0.812068 0 0 255 0.30295 0.953006 0.00122652 
-0.488048 -0.494856 0.681709 0 0 255 0.300017 0.953933 -0.00122456 
-0.47067 -0.500359 0.863462 0 0 255 0.300017 0.953933 0.00122456 
-0.477158 -0.498327 1.26858 0 0 255 0.662182 0.484483 0.571656 
-0.49031 -0.494155 1.00703 0 0 255 0.30072 0.953712 -0.00122743 
-0.462346 -0.503009 1.22514 0 0 255 0.30072 0.953712 0.00122743 
-0.480146 -0.497376 1.13066 0 0 255 0.300017 0.953933 0.00122456 
-0.44329 -0.509014 0.792008 0 0 255 0.30072 0.953712 0.00122743 
-0.421013 -0.516074 1.11734 0 0 255 0.30295 0.953006 -0.00122652 
-0.461976 -0.503124 1.18956 0 0 255 0.30295 0.953006 0.00122652 
-0.479972 -0.497422 0.953462 0 0 255 0.30072 0.953712 0.00122743 
-0.481394 -0.496944 0.351103 0 0 255 0.300017 0.953933 0.00122456 
-0.435597 -0.511462 1.12889 0 0 255 0.30295 0.953006 0.00122652 
-0.435918 -0.511358 1.07466 0 0 255 0.30295 0.953006 0.00122652 
-0.469001 -0.5009 1.14771 0 0 255 0.30072 0.953712 0.00122743 
-0.492107 -0.493575 0.736129 0 0 255 0.300017 0.953933 -0.00122456 
-0.469655 -0.500695 1.17552 0 0 255 0.30072 0.953712 0.00122743 
-0.479237 -0.497628 0.389079 0 0 255 0.300017 0.953933 0.00122456 
-0.47292 -0.484054 1.29215 0 0 255 0.202323 0.914043 0.351555 
-0.479653 -0.478871 1.28644 0 0 255 0.391884 0.902913 0.176563 
-0.497014 -0.470918 1.27837 0 0 255 0.527795 0.821525 0.215708 
-0.450962 -0.495099 1.30273 0 0 255 -0.00392025 0.900351 0.435148 
-0.410808 -0.509457 1.31504 0 0 255 0.0923382 0.935426 -0.34125 
-0.416405 -0.511031 1.31745 0 0 255 -0.0209161 0.779472 0.626088 
0.091344 1.43418 0.087797 0 0 255 0.912925 -0.301396 -0.275188 
-0.350049 0.136099 0.0633239 0 0 255 0.917046 -0.318159 -0.240419 
-0.451579 -0.219848 0.120986 0 0 255 0.891443 -0.279229 -0.356876 
-0.193825 0.571834 0.0981337 0 0 255 0.90958 -0.30806 -0.27886 
-0.398752 -0.0154462 0.0697996 0 0 255 0.912848 -0.304283 -0.272253 
0.0990366 1.43847 0.108446 0 0 255 0.882319 -0.306172 -0.357452 
-0.319109 0.206493 0.0877651 0 0 255 0.91163 -0.304849 -0.275677 
-0.327271 0.164133 0.107567 0 0 255 0.902643 -0.302851 -0.305805 
0.348187 2.17764 0.115147 0 0 255 0.89539 -0.296477 -0.332233 
-0.460106 -0.225587 0.099176 0 0 255 0.91163 -0.304849 -0.275677 
-0.17765 0.631536 0.0856465 0 0 255 0.912036 -0.306921 -0.272011 
-0.159126 0.667818 0.106746 0 0 255 0.896065 -0.298688 -0.328409 
-0.43588 -0.126587 0.0698944 0 0 255 0.919004 -0.303458 -0.251683 
0.556992 2.80169 0.115705 0 0 255 0.878982 -0.326392 -0.347646 
-0.1973 0.562582 0.0968765 0 0 255 0.91163 -0.304849 -0.275677 
-0.484472 -0.268264 0.06585 0 0 255 0.921992 -0.299683 -0.245195 
-0.418622 -0.0830648 0.078831 0 0 255 0.91163 -0.304849 -0.275677 
0.0717841 1.3511 0.114908 0 0 255 0.881164 -0.297752 -0.367278 
0.203107 1.75491 0.102763 0 0 255 0.914425 -0.305774 -0.265198 
-0.251234 0.404253 0.0935701 0 0 255 0.91163 -0.304849 -0.275677 
-0.338901 0.131951 0.104694 0 0 255 0.898434 -0.301458 -0.319278 
-0.147115 0.717303 0.0917857 0 0 255 0.910396 -0.305414 -0.27911 
0.402785 2.34537 0.110268 0 0 255 0.917827 -0.267398 -0.293415 
-0.0888437 0.894136 0.0889879 0 0 255 0.904464 -0.310312 -0.292664 
-0.254968 0.416596 0.0676286 0 0 255 0.912036 -0.306921 -0.272011 
-0.389496 -0.00732421 0.0913855 0 0 255 0.900459 -0.309025 -0.306067 
-0.308493 0.228789 0.0982011 0 0 255 0.91163 -0.304849 -0.275677 
-0.21316 0.528101 0.0825786 0 0 255 0.929898 -0.28927 -0.227183 
-0.39909 -0.0179565 0.071455 0 0 255 0.912121 -0.30404 -0.274946 
-0.444896 -0.180044 0.0991219 0 0 255 0.906535 -0.310014 -0.286506 
-0.345944 0.126315 0.0876676 0 0 255 0.91163 -0.304849 -0.275677 
0.219238 1.81134 0.0937341 0 0 255 0.912121 -0.30404 -0.274946 
-0.540241 -0.463514 0.0972259 0 0 255 -0.589761 0.640168 0.492308 
-0.0469359 1.01583 0.0930277 0 0 255 0.910396 -0.305414 -0.27911 
-0.471352 -0.254687 0.0941693 0 0 255 0.91163 -0.304849 -0.275677 
-0.160987 0.665915 0.102705 0 0 255 0.912848 -0.304283 -0.272253 
0.14462 1.58079 0.101862 0 0 255 0.912592 -0.242294 -0.329346 
-0.208366 0.531511 0.0946378 0 0 255 0.91163 -0.304849 -0.275677 
-0.347127 0.122527 0.0879429 0 0 255 0.922584 -0.282658 -0.262571 
-0.139714 0.73791 0.0934754 0 0 255 0.912848 -0.304283 -0.272253 
0.155147 1.61009 0.104273 0 0 255 0.908389 -0.305722 -0.285243 
-0.438449 -0.138864 0.0749639 0 0 255 0.91729 -0.307689 -0.252796 
-0.120313 0.791626 0.0982352 0 0 255 0.91163 -0.304849 -0.275677 
0.496333 2.62258 0.113135 0 0 255 0.89184 -0.275443 -0.35882 
-0.532708 -0.459467 0.117624 0 0 255 -0.831521 0.477153 0.284427 
-0.445544 -0.173652 0.0899304 0 0 255 0.91163 -0.304849 -0.275677 
-0.192163 0.560427 0.116205 0 0 255 0.895477 -0.299486 -0.329285 
0.018993 1.20644 0.100299 0 0 255 0.904409 -0.313234 -0.289705 
-0.265469 0.353924 0.102124 0 0 255 0.910536 -0.287922 -0.296691 
-0.155352 0.709735 0.0729534 0 0 255 0.928119 -0.318734 -0.192364 
-0.421384 -0.0880057 0.0751667 0 0 255 0.91163 -0.304849 -0.275677 
-0.0776046 0.919626 0.0979552 0 0 255 0.907969 -0.297767 -0.294833 
-0.183235 0.620282 0.0796301 0 0 255 0.917551 -0.301997 -0.258648 
0.237941 1.84684 0.116288 0 0 255 0.89985 -0.300938 -0.315763 
-0.422263 -0.0754256 0.0583872 0 0 255 0.928512 -0.303851 -0.213402 
0.31379 2.07417 0.115787 0 0 255 0.882181 -0.325333 -0.340464 
-0.136087 0.730302 0.11384 0 0 255 0.903188 -0.302045 -0.304992 
-0.475394 -0.276985 0.105431 0 0 255 0.902627 -0.299891 -0.308755 
-0.102773 0.853915 0.0873963 0 0 255 0.912121 -0.30404 -0.274946 
0.247617 1.87846 0.113337 0 0 255 0.901271 -0.303384 -0.309303 
-0.411068 -0.064859 0.0836739 0 0 255 0.910956 -0.301709 -0.281303 
-0.425556 -0.0923996 0.0662461 0 0 255 0.919133 -0.300624 -0.254596 
-0.416181 -0.0963448 0.101539 0 0 255 0.905286 -0.30765 -0.29293 
-0.0262138 1.05456 0.118674 0 0 255 0.891275 -0.31307 -0.328049 
-0.541762 -0.433718 0.0593322 0 0 255 -0.91163 0.304849 0.275677 
-0.0114703 1.13335 0.0804025 0 0 255 0.917244 -0.315348 -0.24335 
-0.0363644 1.054 0.0858 0 0 255 0.9117 -0.301955 -0.278615 
-0.122909 0.800699 0.0796583 0 0 255 0.913239 -0.306349 -0.2686 
-0.416578 -0.115186 0.121017 0 0 255 0.896065 -0.298688 -0.328409 
-0.0323363 1.06217 0.0900745 0 0 255 0.912036 -0.306921 -0.272011 
0.255117 1.90443 0.109443 0 0 255 0.881213 -0.346137 -0.321953 
-0.44658 -0.167927 0.0801947 0 0 255 0.92675 -0.286139 -0.243432 
0.524029 2.70237 0.116505 0 0 255 0.872347 -0.286737 -0.39597 
-0.541299 -0.473597 0.104861 0 0 255 0.00333851 0.989311 0.145782 
-0.0298226 1.07065 0.0890139 0 0 255 0.911545 -0.307737 -0.272734 
-0.395483 -0.0014803 0.0651787 0 0 255 0.914187 -0.327837 -0.238295 
-0.319343 0.213367 0.0794079 0 0 255 0.923335 -0.293463 -0.247654 
-0.440704 -0.155538 0.0859176 0 0 255 0.90715 -0.30336 -0.291636 
0.14787 1.59243 0.0997387 0 0 255 0.913331 -0.303476 -0.271531 
0.0693917 1.34944 0.10884 0 0 255 0.91163 -0.304849 -0.275677 
-0.199767 0.535214 0.118932 0 0 255 0.893792 -0.293952 -0.338716 
0.0731934 1.35603 0.114125 0 0 255 0.888104 -0.292041 -0.354942 
0.063119 1.32483 0.115293 0 0 255 0.898308 -0.295476 -0.325172 
-0.381367 0.0269686 0.0803785 0 0 255 0.913832 -0.309453 -0.262963 
0.0712842 1.35827 0.10535 0 0 255 0.908249 -0.311525 -0.279349 
0.404685 2.34557 0.116322 0 0 255 0.868812 -0.326379 -0.372348 
-0.368604 0.0410799 0.106929 0 0 255 0.907813 -0.28305 -0.309448 
0.318845 2.09701 0.107271 0 0 255 0.891307 -0.316077 -0.325065 
-0.30687 0.23155 0.100512 0 0 255 0.91163 -0.304849 -0.275677 
-0.215137 0.486993 0.121408 0 0 255 0.89966 -0.291982 -0.324589 
-0.157017 0.674372 0.106476 0 0 255 0.91163 -0.304849 -0.275677 
0.158492 1.60725 0.118447 0 0 255 0.886041 -0.29635 -0.356522 
-0.324502 0.175692 0.103953 0 0 255 0.906652 -0.301238 -0.29536 
-0.476378 -0.243899 0.06568 0 0 255 0.933365 -0.305541 -0.188347 
-0.440638 -0.189227 0.123305 0 0 255 0.875664 -0.2929 -0.383957 
-0.514115 -0.4001 0.113482 0 0 255 0.903031 -0.290207 -0.316724 
-0.115947 0.805243 0.0976207 0 0 255 0.91163 -0.304849 -0.275677 
-0.54215 -0.428855 0.0526866 0 0 255 0.935037 -0.304269 -0.182006 
-0.0161731 1.09214 0.110346 0 0 255 0.909238 -0.300151 -0.288438 
-0.295459 0.257027 0.110059 0 0 255 0.879751 -0.340695 -0.33161 
-0.0599392 0.990374 0.0781962 0 0 255 0.919412 -0.31412 -0.236666 
-0.44842 -0.175688 0.0826871 0 0 255 0.911542 -0.318386 -0.260233 
0.210579 1.76782 0.113172 0 0 255 0.903172 -0.299093 -0.307933 
-0.444152 -0.186811 0.109046 0 0 255 0.908249 -0.311525 -0.279349 
0.335665 2.14463 0.110246 0 0 255 0.905862 -0.300975 -0.298039 
-0.532657 -0.398964 0.0510367 0 0 255 0.928126 -0.311253 -0.204216 
-0.246479 0.402297 0.111421 0 0 255 0.888104 -0.292041 -0.354942 
-0.337401 0.134404 0.106939 0 0 255 0.897343 -0.292193 -0.330756 
-0.39539 -0.017202 0.0828341 0 0 255 0.91163 -0.304849 -0.275677 
-0.42174 -0.111531 0.0999506 0 0 255 0.911754 -0.299055 -0.28155 
0.190986 1.72794 0.0925187 0 0 255 0.913562 -0.286124 -0.289028 
-0.208316 0.541117 0.0842036 0 0 255 0.91163 -0.304849 -0.275677 
0.173616 1.65088 0.120217 0 0 255 0.896065 -0.328409 -0.298688 
-0.0875339 0.86985 0.120106 0 0 255 0.884434 -0.326954 -0.332981 
-0.368888 0.0532789 0.0925316 0 0 255 0.914033 -0.314335 -0.256393 
-0.301589 0.236345 0.112647 0 0 255 0.881777 -0.310059 -0.355433 
-0.00172253 1.13616 0.109471 0 0 255 0.888407 -0.298133 -0.34907 
-0.135765 0.736665 0.107881 0 0 255 0.902627 -0.308755 -0.299891 
-0.513494 -0.372303 0.0848606 0 0 255 0.91163 -0.304849 -0.275677 
-0.343269 0.154488 0.065413 0 0 255 0.918555 -0.304262 -0.25235 
-0.125823 0.772166 0.101522 0 0 255 0.904534 -0.301511 -0.301511 
-0.417056 -0.0591566 0.0576224 0 0 255 0.912848 -0.304283 -0.272253 
-0.327375 0.191566 0.0769549 0 0 255 0.912869 -0.314933 -0.259783 
0.475977 2.56347 0.111175 0 0 255 0.905815 -0.306832 -0.292151 
-0.369143 0.0431263 0.102892 0 0 255 0.91163 -0.304849 -0.275677 
-0.20768 0.555128 0.0708427 0 0 255 0.937254 -0.271567 -0.218646 
-0.389944 -0.0392273 0.125107 0 0 255 0.896255 -0.310642 -0.316588 
0.404086 2.34967 0.109818 0 0 255 0.915124 -0.306008 -0.2625 
-0.354564 0.0779155 0.11262 0 0 255 0.888534 -0.301173 -0.346124 
-0.469163 -0.228026 0.0719765 0 0 255 0.91163 -0.304849 -0.275677 
-0.0310613 1.06149 0.0950384 0 0 255 0.91163 -0.304849 -0.275677 
-0.385383 0.0187778 0.0761622 0 0 255 0.922965 -0.306704 -0.232524 
-0.150663 0.687024 0.113486 0 0 255 0.885873 -0.293285 -0.359463 
0.365164 2.23345 0.109592 0 0 255 0.897675 -0.313073 -0.310106 
-0.35754 0.0732838 0.107911 0 0 255 0.909766 -0.296441 -0.2906 
-0.362497 0.0620087 0.10399 0 0 255 0.896263 -0.313618 -0.313618 
-0.350424 0.0936033 0.108977 0 0 255 0.896232 -0.307662 -0.319552 
-0.184421 0.615029 0.0815126 0 0 255 0.910396 -0.305414 -0.27911 
-0.256039 0.412973 0.0680932 0 0 255 0.912755 -0.307163 -0.269314 
-0.500663 -0.348118 0.100521 0 0 255 0.906652 -0.301238 -0.29536 
-0.519479 -0.385315 0.0794666 0 0 255 0.911545 -0.307737 -0.272734 
-0.517923 -0.404539 0.105813 0 0 255 0.911824 -0.290325 -0.290325 
0.202258 1.74577 0.110047 0 0 255 0.900018 -0.285228 -0.329563 
-0.304683 0.223929 0.116137 0 0 255 0.890077 -0.300682 -0.342568 
-0.274432 0.359732 0.0661348 0 0 255 0.922965 -0.306704 -0.232524 
-0.20479 0.520486 0.118604 0 0 255 0.885392 -0.302146 -0.353255 
0.105644 1.46625 0.0996005 0 0 255 0.891698 -0.303207 -0.336067 
-0.155857 0.67704 0.107361 0 0 255 0.905769 -0.2892 -0.309752 
-0.0481155 1.00404 0.102135 0 0 255 0.89966 -0.291982 -0.324589 
-0.487523 -0.325306 0.11872 0 0 255 0.885248 -0.299091 -0.356203 
-0.158459 0.68779 0.0869126 0 0 255 0.912121 -0.30404 -0.274946 
-0.305783 0.262398 0.070063 0 0 255 0.913239 -0.306349 -0.2686 
-0.514132 -0.371616 0.0819966 0 0 255 0.913948 -0.306587 -0.265902 
-0.0221833 1.07627 0.108028 0 0 255 0.891698 -0.303207 -0.336067 
-0.339994 0.133865 0.0989735 0 0 255 0.91163 -0.304849 -0.275677 
-0.224522 0.475945 0.102626 0 0 255 0.912848 -0.304283 -0.272253 
-0.0652866 0.961524 0.0923797 0 0 255 0.907111 -0.306278 -0.288693 
0.0394321 1.2755 0.0915478 0 0 255 0.908482 -0.29405 -0.296976 
-0.0920603 0.861454 0.114432 0 0 255 0.90715 -0.30336 -0.291636 
-0.3092 0.243177 0.0799938 0 0 255 0.912848 -0.304283 -0.272253 
-0.393688 -0.0179315 0.0892564 0 0 255 0.91163 -0.304849 -0.275677 
-0.502071 -0.365363 0.114902 0 0 255 0.899882 -0.312809 -0.303914 
0.050885 1.30153 0.100628 0 0 255 0.89966 -0.291982 -0.324589 
0.310698 2.07527 0.104372 0 0 255 0.914425 -0.305774 -0.265198 
-0.0674928 0.942773 0.105787 0 0 255 0.905177 -0.287007 -0.3135 
-0.225694 0.469116 0.106294 0 0 255 0.896137 -0.301684 -0.325463 
0.313866 2.07295 0.117388 0 0 255 0.899006 -0.255383 -0.355764 
-0.544662 -0.436375 0.0526937 0 0 255 -0.566839 0.773251 0.284213 
0.0989465 1.44517 0.100762 0 0 255 0.913239 -0.306349 -0.2686 
-0.522481 -0.413092 0.100207 0 0 255 0.905815 -0.306832 -0.292151 
-0.529084 -0.40956 0.0745187 0 0 255 0.91163 -0.304849 -0.275677 
-0.110197 0.803348 0.118688 0 0 255 0.883857 -0.287592 -0.368901 
-0.240946 0.441535 0.0863914 0 0 255 0.910816 -0.307492 -0.275431 
0.596695 2.91964 0.116592 0 0 255 0.900412 -0.300137 -0.314922 
-0.17075 0.63367 0.106064 0 0 255 0.902643 -0.302851 -0.305805 
-0.26143 0.366193 0.101917 0 0 255 0.907173 -0.300437 -0.294575 
0.526397 2.70883 0.117199 0 0 255 0.875414 -0.289782 -0.386881 
-0.50018 -0.335872 0.0886051 0 0 255 0.914355 -0.320242 -0.247789 
0.273893 2.01491 0.0460171 0 0 255 0.943392 -0.313575 -0.108083 
0.39042 2.3271 0.0885824 0 0 255 0.9117 -0.301955 -0.278615 
0.101768 1.46826 0.0844274 0 0 255 0.914425 -0.305774 -0.265198 
0.38442 2.32638 0.0682019 0 0 255 0.920864 -0.307909 -0.239167 
0.51305 2.69942 0.0815127 0 0 255 0.916284 -0.305428 -0.259107 
0.554302 2.81626 0.0890919 0 0 255 0.915471 -0.30805 -0.258877 
0.233534 1.88492 0.0571688 0 0 255 0.936317 -0.305652 -0.17288 
0.111639 1.51558 0.0633007 0 0 255 0.921038 -0.305103 -0.242077 
-0.124381 0.806498 0.0680139 0 0 255 0.9164 -0.302571 -0.262035 
0.481424 2.61246 0.0726074 0 0 255 0.915471 -0.30805 -0.258877 
0.0515348 1.33496 0.0645582 0 0 255 0.917427 -0.31253 -0.246279 
0.343778 2.19589 0.0789411 0 0 255 0.915124 -0.306008 -0.2625 
0.536608 2.77611 0.0740325 0 0 255 0.916284 -0.305428 -0.259107 
-0.338475 0.176538 0.0565929 0 0 255 0.917933 -0.348672 -0.189279 
0.502255 2.64303 0.110104 0 0 255 0.903141 -0.310869 -0.296136 
0.602739 2.94286 0.110542 0 0 255 0.957945 -0.0729011 -0.277536 
0.156397 1.6505 0.0618748 0 0 255 0.921233 -0.333574 -0.200145 
0.321535 2.11804 0.0924444 0 0 255 0.903989 -0.299363 -0.305262 
0.537651 2.78933 0.0620604 0 0 255 0.918525 -0.32055 -0.231428 
0.522527 2.70315 0.110633 0 0 255 0.916584 -0.29684 -0.26788 
0.566389 2.85647 0.0842319 0 0 255 0.911049 -0.290078 -0.292993 
0.38974 2.34147 0.0691443 0 0 255 0.916284 -0.305428 -0.259107 
0.116644 1.54255 0.0490754 0 0 255 0.929828 -0.315553 -0.189332 
-0.174304 0.667225 0.0563201 0 0 255 0.920019 -0.319074 -0.227501 
0.192726 1.76377 0.05626 0 0 255 0.932871 -0.305379 -0.191036 
0.083586 1.42977 0.0656784 0 0 255 0.936812 -0.29751 -0.184041 
-0.302679 0.280435 0.0601981 0 0 255 0.926147 -0.325632 -0.190304 
0.413264 2.4026 0.0799787 0 0 255 0.916617 -0.307464 -0.255498 
0.477284 2.60128 0.0711927 0 0 255 0.924983 -0.300726 -0.232315 
0.45966 2.53183 0.0910868 0 0 255 0.915471 -0.30805 -0.258877 
0.172335 1.69872 0.0611603 0 0 255 0.931453 -0.288877 -0.221238 
-0.20825 0.570269 0.0510423 0 0 255 0.946355 -0.284852 -0.152551 
0.369507 2.26752 0.0851487 0 0 255 0.916284 -0.305428 -0.259107 
0.331568 2.18121 0.0531193 0 0 255 0.935866 -0.305504 -0.175561 
0.548244 2.83159 0.0494884 0 0 255 0.938623 -0.303713 -0.163538 
-0.356994 0.125401 0.0516321 0 0 255 0.933589 -0.295333 -0.202954 
0.568758 2.88783 0.0554751 0 0 255 0.916008 -0.311124 -0.253241 
0.301386 2.05521 0.0955705 0 0 255 0.906652 -0.301238 -0.29536 
0.402573 2.37493 0.0749289 0 0 255 0.916472 -0.310302 -0.252571 
-0.0360257 1.06471 0.0748279 0 0 255 0.918525 -0.311925 -0.242928 
0.296679 2.06949 0.0619999 0 0 255 0.921492 -0.308119 -0.236464 
-0.0469402 1.05368 0.0492587 0 0 255 0.930293 -0.296962 -0.215333 
0.562443 2.86191 0.0638317 0 0 255 0.916284 -0.305428 -0.259107 
0.579508 2.91487 0.0614846 0 0 255 0.917884 -0.30404 -0.255048 
0.203945 1.79646 0.0572386 0 0 255 0.91574 -0.32159 -0.240832 
0.56012 2.86529 0.0516047 0 0 255 0.923951 -0.301319 -0.235629 
0.234926 1.86672 0.0836502 0 0 255 0.915124 -0.306008 -0.2625 
-0.201824 0.589525 0.050973 0 0 255 0.929945 -0.309982 -0.197771 
0.255177 1.94453 0.0631425 0 0 255 0.916284 -0.305428 -0.259107 
0.130396 1.56622 0.0696967 0 0 255 0.916617 -0.307464 -0.255498 
0.438885 2.49746 0.0582874 0 0 255 0.917911 -0.320335 -0.234146 
0.37788 2.28041 0.0995118 0 0 255 0.88811 -0.308058 -0.341118 
0.564054 2.86675 0.0637931 0 0 255 0.916284 -0.305428 -0.259107 
0.346275 2.20275 0.0796549 0 0 255 0.918555 -0.304262 -0.25235 
0.248429 1.91894 0.0695878 0 0 255 0.917428 -0.304846 -0.255724 
0.279896 2.02873 0.0508833 0 0 255 0.916154 -0.308279 -0.256176 
0.531364 2.74532 0.0919485 0 0 255 0.910225 -0.3112 -0.273213 
0.270523 2.00518 0.0456089 0 0 255 0.936195 -0.302846 -0.178389 
-0.417324 -0.0558042 0.05278 0 0 255 0.925685 -0.317983 -0.204923 
-0.468017 -0.203139 0.0479095 0 0 255 0.922898 -0.31524 -0.221096 
-0.318522 0.240849 0.0510205 0 0 255 0.929728 -0.292039 -0.22432 
0.538526 2.76597 0.0928352 0 0 255 0.903031 -0.290207 -0.316724 
0.142928 1.61158 0.0603087 0 0 255 0.922541 -0.307514 -0.233138 
-0.12211 0.813571 0.0676713 0 0 255 0.917244 -0.315348 -0.24335 
0.209761 1.80899 0.062988 0 0 255 0.930758 -0.30183 -0.206367 
0.514145 2.69356 0.0923339 0 0 255 0.910396 -0.305414 -0.27911 
-0.403168 -0.0128274 0.0519684 0 0 255 0.937477 -0.311577 -0.155102 
0.244926 1.90506 0.0736205 0 0 255 0.915001 -0.308867 -0.259565 
0.198401 1.78828 0.0473104 0 0 255 0.939942 -0.315117 -0.131186 
-0.108044 0.866088 0.0552408 0 0 255 0.936317 -0.305652 -0.17288 
0.386409 2.31765 0.0855763 0 0 255 0.916284 -0.305428 -0.259107 
0.024712 1.24406 0.077313 0 0 255 0.941475 -0.26682 -0.205991 
