ply
format ascii 1.0
comment VCGLIB generated
element vertex 638
property float x
property float y
property float z
property float nx
property float ny
property float nz
property uchar red
property uchar green
property uchar blue
property uchar alpha
element face 0
property list uchar int vertex_indices
end_header
0.0861057 0.01409 0.967967 0.2662627 -0.6345071 0.7256066 149 45 33 255 
0.0861057 0.0167864 0.854012 0.02082786 0.4766477 -0.8788477 91 0 38 255 
0.0861057 0.0172211 0.854253 0.02545337 0.4731424 -0.8806182 89 0 38 255 
0.0861057 0.0160856 0.969863 0.2607892 -0.662645 0.7020616 154 40 28 255 
0.0861057 0.0172211 0.971038 0.2702628 -0.6800032 0.6815818 156 36 24 255 
0.0861057 0.0203523 0.855922 0.02600328 0.4728605 -0.8807535 68 0 26 255 
0.0861057 0.0193673 0.972994 0.2924178 -0.6935757 0.658365 168 38 21 255 
0.0861057 0.0203523 0.974103 0.2762433 -0.7260756 0.6296855 168 38 20 255 
0.0861057 0.0226602 0.857143 0.02678436 0.4682928 -0.8831673 65 0 26 255 
0.0861057 0.0234834 0.857575 0.02639334 0.4674956 -0.8836012 63 0 28 255 
0.0861057 0.0221099 0.976125 0.2755866 -0.7267935 0.6291448 172 40 23 255 
0.0861057 0.0234834 0.977197 0.2869658 -0.6698824 0.6847688 177 47 28 255 
0.0861057 0.0266145 0.859234 0.02099774 0.47226 -0.8812092 66 0 20 255 
0.0861057 0.0252268 0.979256 0.3049202 -0.5380201 0.7858486 182 59 38 255 
0.0861057 0.0266145 0.980464 0.2918725 -0.4806234 0.826929 184 61 40 255 
0.0861057 0.028554 0.860274 0.01693713 0.4745738 -0.8800527 66 0 23 255 
0.0861057 0.0297456 0.860923 0.01742388 0.4793101 -0.8774727 68 0 24 255 
0.0861057 0.0297456 0.980785 0.224696 -0.4969668 0.838174 200 59 35 255 
0.0829746 0.0297456 0.980734 0.350669 -0.5103083 0.7852495 195 54 24 255 
0.0861057 0.0328767 0.862646 0.01743505 0.4811858 -0.8764452 72 0 31 255 
0.0861057 0.0342296 0.863405 0.02100664 0.4769323 -0.878689 68 0 26 255 
0.0861057 0.0360078 0.864386 0.02576509 0.4694457 -0.8825853 61 0 18 255 
0.0861057 0.0391389 0.865998 0.03350176 0.4636903 -0.8853638 61 8 40 255 
0.0861057 0.0401418 0.866536 0.0365824 0.4634782 -0.8853528 63 8 38 255 
0.0861057 0.0422701 0.867641 0.03746889 0.4592486 -0.8875172 68 7 33 255 
0.0861057 0.0454012 0.869223 0.0448079 0.4635549 -0.8849345 42 0 16 255 
0.0861057 0.0462376 0.869667 0.04402298 0.4581546 -0.8877817 52 4 24 255 
0.0861057 0.0485323 0.870843 0.05515496 0.4671303 -0.8824666 75 18 45 255 
0.0861057 0.0516634 0.87254 0.05772905 0.4693986 -0.8810973 79 7 40 255 
0.0861057 0.0521499 0.872798 0.06788582 0.4715984 -0.8791965 75 4 38 255 
0.0861057 0.0547945 0.874164 0.07293642 0.4561323 -0.886918 59 0 23 255 
0.0861057 0.0579257 0.875787 0.08637562 0.4725175 -0.8770784 61 0 23 255 
0.0861057 0.0581989 0.87593 0.06945173 0.4533952 -0.8885996 61 0 21 255 
0.0861057 0.0610568 0.877382 0.08596257 0.4609628 -0.8832461 63 0 11 255 
0.0861057 0.0641878 0.87898 0.08806144 0.4681197 -0.8792663 84 0 1 255 
0.0861057 0.0643396 0.879061 0.08802563 0.46853 -0.8790512 87 0 1 255 
0.0861057 0.067319 0.88059 0.0732959 0.4435084 -0.8932681 149 17 4 255 
0.0861057 0.0704501 0.882131 0.0517227 0.3927201 -0.9182024 193 24 0 255 
0.0861057 0.070599 0.882192 0.0517227 0.3927201 -0.9182024 193 24 0 255 
0.0861057 0.0735812 0.883308 0.002921171 0.2913111 -0.956624 196 13 0 255 
0.0861057 0.0767123 0.884032 -0.07358614 0.18633 -0.9797276 203 11 0 255 
0.0861057 0.0798434 0.884229 -0.1115137 0.06907462 -0.9913594 214 24 0 255 
0.0861057 0.0829746 0.884219 -0.1375787 0.08812825 -0.9865624 219 56 0 255 
0.0861057 0.0861057 0.884425 -0.1043072 0.1539303 -0.9825607 198 54 2 255 
0.0856017 0.0892368 0.885323 -0.05288815 0.4505286 -0.891194 182 17 0 255 
0.0861057 0.0892368 0.885287 -0.03453365 0.4610675 -0.8866928 182 14 0 255 
0.0861057 0.089298 0.885323 -0.03453365 0.4610675 -0.8866928 182 14 0 255 
0.0861057 0.0923679 0.887164 -0.03477781 0.5831194 -0.8116418 172 14 0 255 
0.0861057 0.0938305 0.888454 0.02910038 0.6352608 -0.7717493 170 20 0 255 
0.0861057 0.095499 0.89002 0.04229372 0.7169523 -0.6958382 165 26 0 255 
0.0861057 0.0968292 0.891585 0.05435523 0.7223921 -0.689344 161 26 0 255 
0.0861057 0.0986302 0.893642 0.06597158 0.7286597 -0.6816911 158 28 0 255 
0.0861057 0.0995926 0.894716 0.0849525 0.7044467 -0.7046545 154 28 0 255 
0.0861057 0.101761 0.896927 0.1010961 0.6363112 -0.7647794 147 28 0 255 
0.0861057 0.1032 0.897847 0.06890614 0.5418799 -0.8376265 133 20 1 255 
0.0861057 0.104892 0.898875 0.07016054 0.4604833 -0.8848913 117 11 2 255 
0.0861765 -0.148728 0.807045 0.9923074 -0.1232631 -0.01149443 114 93 165 255 
0.08618 -0.145597 0.803914 0.9925803 -0.04053349 -0.114636 112 89 161 255 
0.0863222 -0.145597 0.807045 0.9997158 -0.0215683 -0.01015079 114 93 161 255 
0.0861462 -0.145597 0.810176 0.9946934 -0.06499502 0.07975378 116 93 163 255 
0.0863647 -0.142466 0.807045 0.9996399 0.007207729 -0.02584835 114 91 161 255 
0.0863683 -0.142466 0.810176 0.9995453 -0.01679751 0.02504416 116 93 163 255 
0.0862049 -0.139335 0.807045 0.9955702 0.06054321 -0.07193324 114 91 160 255 
0.0863268 -0.139335 0.810176 0.9998763 0.01303176 0.008810352 114 91 160 255 
0.086258 -0.139335 0.813307 0.9980019 -0.0077186 0.06271125 116 93 161 255 
0.0861605 -0.136203 0.810176 0.9974439 0.06384836 -0.0320772 114 91 158 255 
0.0861961 -0.136203 0.813307 0.9996303 0.01404598 0.02327877 114 93 158 255 
0.086292 -0.123679 0.822701 0.9762513 -0.1742919 -0.1286686 110 89 158 255 
0.0867042 -0.123679 0.825832 0.9460566 -0.3063923 -0.1053601 114 91 158 255 
0.0870759 -0.123679 0.828963 0.9192609 -0.3889641 -0.0605493 124 82 138 255 
0.0873729 -0.123679 0.832094 0.9096678 -0.4149558 -0.01778401 133 52 89 255 
0.0873741 -0.123679 0.835225 0.900695 -0.4336187 0.02689338 133 14 26 255 
0.087109 -0.123679 0.838356 0.8996015 -0.4201221 0.1192243 149 2 1 255 
0.0865557 -0.123679 0.841487 0.8902853 -0.4237365 0.1668517 170 0 0 255 
0.0864438 -0.120548 0.819569 0.9551658 -0.1979216 -0.2201937 110 89 156 255 
0.0871507 -0.120548 0.822701 0.9332799 -0.2816387 -0.2228638 117 91 153 255 
0.0878859 -0.120548 0.825832 0.9301577 -0.3307448 -0.1594194 133 73 116 255 
0.0884483 -0.120548 0.828963 0.9232035 -0.369418 -0.1059512 137 29 47 255 
0.0888139 -0.120548 0.832094 0.9208785 -0.3876635 -0.0412273 140 4 5 255 
0.088816 -0.120548 0.835225 0.9204659 -0.3879402 0.04738008 156 0 0 255 
0.0884156 -0.120548 0.838356 0.9096729 -0.3967518 0.1228139 174 0 0 255 
0.0878871 -0.120548 0.841487 0.8920845 -0.4348713 0.1227692 179 0 0 255 
0.0873137 -0.120548 0.844618 0.8522871 -0.5102029 0.1153253 179 0 0 255 
0.0867649 -0.120548 0.84775 0.7990877 -0.5913037 0.1087142 182 0 0 255 
0.0862663 -0.120548 0.850881 0.7243702 -0.6795299 0.1163062 188 5 0 255 
0.0861858 -0.117417 0.816438 0.9392097 -0.147083 -0.3102447 110 89 156 255 
0.0872435 -0.117417 0.819569 0.9217099 -0.2404632 -0.304349 124 86 135 255 
0.088245 -0.117417 0.822701 0.9272479 -0.2810131 -0.2474731 137 51 79 255 
0.0891419 -0.117417 0.825832 0.9355618 -0.3018339 -0.1833584 138 7 14 255 
0.0892368 -0.118614 0.828963 0.9389549 -0.3272612 -0.1061306 144 8 13 255 
0.0892368 -0.117417 0.82633 0.9359115 -0.3016824 -0.1818171 140 4 10 255 
0.0892368 -0.119416 0.832094 0.9381305 -0.3411027 -0.05966643 149 1 1 255 
0.0892368 -0.119396 0.835225 0.9355993 -0.3520028 0.02734789 165 0 0 255 
0.0892368 -0.118429 0.838356 0.9170212 -0.3948781 0.05606623 177 0 0 255 
0.0892368 -0.117718 0.841487 0.8417122 -0.5396352 0.01773166 181 0 0 255 
0.0892368 -0.117573 0.844618 0.7742895 -0.632493 -0.020692 182 0 0 255 
0.0892368 -0.11762 0.84775 0.7312351 -0.6819204 -0.01672756 195 8 0 255 
0.0892368 -0.117729 0.850881 0.6756143 -0.7370198 0.01863144 218 29 0 255 
0.0892368 -0.117633 0.854012 0.642089 -0.7628983 0.07554989 221 35 0 255 
0.0892368 -0.117417 0.855731 0.6238176 -0.7729219 0.1159461 221 33 0 255 
0.0890091 -0.117417 0.857143 0.6163918 -0.770341 0.163205 219 31 0 255 
0.0879071 -0.117417 0.860274 0.5995311 -0.7517745 0.274586 218 29 0 255 
0.0868276 -0.114286 0.816438 0.8971465 -0.173832 -0.4060918 131 66 110 255 
0.088181 -0.114286 0.819569 0.910919 -0.2185342 -0.3499562 140 24 36 255 
0.0892368 -0.114407 0.822701 0.9381208 -0.2274338 -0.2611578 140 1 2 255 
0.0892368 -0.114286 0.822589 0.936764 -0.2285593 -0.2650167 140 0 1 255 
0.0892368 -0.117098 0.825832 0.9386697 -0.2838118 -0.1958314 140 5 11 255 
0.0892368 -0.117235 0.857143 0.6184186 -0.7656108 0.1771964 219 31 0 255 
0.0892368 -0.116337 0.860274 0.5928756 -0.7587506 0.2698075 219 31 0 255 
0.0892368 -0.11504 0.863405 0.5931549 -0.6905918 0.4138242 218 29 0 255 
0.0892368 -0.114286 0.864841 0.5113921 -0.7141711 0.4779516 216 31 0 255 
0.0881257 -0.114286 0.866536 0.5308661 -0.6882845 0.4944146 212 31 0 255 
0.0875109 -0.111155 0.816438 0.8919467 -0.1526421 -0.4255955 142 5 11 255 
0.0889607 -0.111155 0.819569 0.9245555 -0.1612384 -0.3452525 151 0 0 255 
0.0892368 -0.111155 0.820387 0.931729 -0.1705344 -0.320623 154 0 0 255 
0.0892368 -0.113485 0.866536 0.5201274 -0.6524369 0.5511748 212 33 0 255 
0.0892368 -0.111155 0.86758 0.5067283 -0.5261903 0.6828985 216 59 31 255 
0.0874221 -0.111155 0.869667 0.4637219 -0.5058356 0.7273874 214 70 45 255 
0.086318 -0.108024 0.813307 0.8371031 -0.07470809 -0.5419197 153 0 0 255 
0.0880177 -0.108024 0.816438 0.8962905 -0.08701415 -0.434847 163 0 0 255 
0.0892368 -0.109076 0.819569 0.9271291 -0.1282023 -0.3521303 163 0 0 255 
0.0892368 -0.108024 0.819256 0.927047 -0.104021 -0.3602272 168 0 0 255 
0.0892368 -0.109412 0.869667 0.5144107 -0.4894602 0.704138 216 75 52 255 
0.0863678 -0.104892 0.813307 0.8461323 0.00491043 -0.5329502 161 0 0 255 
0.0881131 -0.104892 0.816438 0.8808839 -0.03039137 -0.4723557 170 0 0 255 
0.0892368 -0.104892 0.818804 0.8756339 -0.13488 -0.4637592 172 0 0 255 
0.0861419 -0.101761 0.813307 0.8207416 0.02516604 -0.570745 168 0 0 255 
0.0881123 -0.101761 0.816438 0.8406751 -0.08664942 -0.5345626 165 0 0 255 
0.0892368 -0.101761 0.818248 0.8213937 -0.2295487 -0.52213 165 0 0 255 
0.0886173 -0.0986301 0.816438 0.7744743 -0.2011648 -0.5997685 177 0 0 255 
0.0892368 -0.0986301 0.817184 0.7149712 -0.2972157 -0.632834 182 0 0 255 
0.0866801 -0.0954991 0.813307 0.6551019 -0.2743137 -0.703984 182 0 0 255 
0.0892368 -0.0954991 0.815675 0.6080822 -0.3700909 -0.7023309 196 5 0 255 
0.0892368 -0.0971717 0.816438 0.6991602 -0.2532046 -0.6686273 188 2 0 255 
0.088405 -0.0923679 0.813307 0.5323665 -0.3849208 -0.7539376 221 59 7 255 
0.0892368 -0.0923679 0.813928 0.5502951 -0.4057111 -0.7297766 230 65 8 255 
0.0892368 -0.0912998 0.813307 0.5194222 -0.4143099 -0.7473606 235 56 4 255 
0.0892368 -0.0892368 0.812197 0.4759835 -0.3838269 -0.7912753 242 42 0 255 
0.0881852 -0.0861057 0.810176 0.4506151 -0.3352077 -0.8273945 239 36 0 255 
0.0892368 -0.0861057 0.810727 0.4470491 -0.3328148 -0.8302899 240 38 0 255 
0.0892368 -0.0845836 0.810176 0.4527102 -0.3103628 -0.8358998 240 36 0 255 
0.0892368 -0.0829745 0.809619 0.412849 -0.2603113 -0.8728079 235 33 0 255 
0.0873715 -0.0829745 0.87593 0.8743104 -0.4838966 -0.03775483 193 11 0 255 
0.0872241 -0.0829745 0.879061 0.8599935 -0.5099617 -0.01870995 205 14 0 255 
0.0874174 -0.0829745 0.882192 0.8390201 -0.5425125 -0.04153682 205 13 0 255 
0.087381 -0.0829745 0.885323 0.7733099 -0.6152176 0.153294 225 49 28 255 
0.0892368 -0.0798435 0.808838 0.3946597 -0.1912681 -0.8986992 228 28 0 255 
0.0887255 -0.0798435 0.87593 0.8853639 -0.460095 -0.0666595 198 11 0 255 
0.0889724 -0.0798435 0.879061 0.8728843 -0.4822356 -0.07430927 207 11 0 255 
0.0892368 -0.0800311 0.882192 0.8475053 -0.5260099 -0.0710519 205 14 0 255 
0.0892368 -0.0798435 0.881311 0.8470056 -0.5236458 -0.09152367 205 14 0 255 
0.0892368 -0.0804996 0.885323 0.7973483 -0.6000641 0.06449025 228 54 35 255 
0.0892368 -0.0798435 0.887275 0.7354438 -0.661316 0.147593 233 75 49 255 
0.0889735 -0.0798435 0.888454 0.6437615 -0.6634166 0.3813787 235 87 59 255 
0.0864256 -0.0798435 0.891585 0.5426203 -0.626508 0.5595095 198 42 8 255 
0.0862335 -0.0767123 0.807045 0.3700319 -0.04725656 -0.9278163 205 20 0 255 
0.0892368 -0.0767123 0.808297 0.3909282 -0.1142567 -0.9133021 212 21 0 255 
0.0892368 -0.0793308 0.879061 0.8721098 -0.4826766 -0.08029855 207 11 0 255 
0.0892368 -0.0788891 0.87593 0.8886268 -0.4514537 -0.08082075 198 11 0 255 
0.0892368 -0.0795398 0.888454 0.6394989 -0.6702425 0.3765848 237 89 59 255 
0.0892368 -0.0775797 0.891585 0.5710426 -0.6194816 0.5386584 209 49 11 255 
0.0892368 -0.0767123 0.89242 0.5443945 -0.631332 0.5523174 209 49 13 255 
0.0864505 -0.0767123 0.894716 0.4689201 -0.6269301 0.6221517 200 40 2 255 
0.0865539 -0.0735812 0.807045 0.3281919 0.01725011 -0.9444536 202 13 0 255 
0.0892368 -0.0735812 0.808017 0.3563974 -0.01287433 -0.9342458 204 18 0 255 
0.0892368 -0.0745137 0.894716 0.5066199 -0.5989066 0.6201994 203 43 4 255 
0.0892368 -0.0735812 0.895613 0.494321 -0.6179676 0.6113614 198 45 11 255 
0.0866741 -0.0735812 0.897847 0.445517 -0.6021918 0.6624799 191 52 23 255 
0.0892368 -0.0704501 0.80807 0.3238136 0.08228435 -0.9425359 209 11 0 255 
0.0892368 -0.0713689 0.897847 0.4671832 -0.5906816 0.6579021 195 49 18 255 
0.0892368 -0.0704501 0.898491 0.4469124 -0.5784322 0.6824115 191 49 20 255 
0.0892368 -0.067319 0.808652 0.2003013 0.3323849 -0.9216288 214 11 0 255 
0.0892368 -0.0676684 0.900979 0.4300157 -0.5568886 0.7106065 175 52 26 255 
0.0892368 -0.067319 0.90123 0.4267434 -0.5561423 0.713159 175 54 28 255 
0.0892368 -0.0641879 0.810121 0.1094496 0.6261749 -0.7719623 202 8 0 255 
0.0892368 -0.0641879 0.903403 0.4115257 -0.5443027 0.7310137 160 47 29 255 
0.0882163 -0.0641879 0.90411 0.4182766 -0.5436741 0.7276422 147 45 31 255 
0.0892368 -0.064115 0.810176 0.1082207 0.6234605 -0.7743289 202 7 0 255 
0.0892368 -0.0610568 0.813183 -0.009466907 0.773662 -0.6335278 175 0 0 255 
0.0892368 -0.0633141 0.90411 0.4185177 -0.5517152 0.7214245 158 47 29 255 
0.0892368 -0.0610568 0.905828 0.4052782 -0.5817857 0.7051772 196 89 73 255 
0.086926 -0.0610568 0.907241 0.4074334 -0.5798219 0.7055527 184 98 96 255 
0.0892368 -0.0609776 0.813307 -0.01017678 0.7736968 -0.6334743 175 0 0 255 
0.0892368 -0.0589349 0.816438 -0.03464461 0.8688539 -0.493855 170 0 0 255 
0.0892368 -0.0579256 0.818455 -0.0426242 0.8851565 -0.4633372 167 0 0 255 
0.0892368 -0.0594507 0.907241 0.4006338 -0.6102073 0.6834761 205 107 98 255 
0.0892368 -0.0579256 0.908626 0.3955955 -0.60712 0.6891368 207 119 112 255 
0.0862554 -0.0579256 0.910372 0.3891496 -0.6084991 0.6915863 216 153 158 255 
0.0892368 -0.0574765 0.819569 -0.05037631 0.9029262 -0.4268332 165 0 0 255 
0.0892368 -0.055962 0.822701 -0.02023655 0.9021352 -0.4309786 165 0 0 255 
0.0892368 -0.0547945 0.825105 0.01049438 0.9043162 -0.4267342 165 0 0 255 
0.0892368 -0.0559251 0.910372 0.3938718 -0.6039219 0.6929237 209 131 137 255 
0.0892368 -0.0547945 0.911218 0.4038238 -0.579342 0.7080178 193 117 126 255 
0.0892368 -0.0545108 0.825832 0.03210896 0.8944498 -0.446014 165 0 0 255 
0.0892368 -0.0531359 0.828963 0.1145898 0.8894365 -0.4424611 163 0 0 255 
0.0892368 -0.0516634 0.831524 0.2133757 0.8263912 -0.521103 163 0 0 255 
0.0892368 -0.0521476 0.913503 0.4176381 -0.533391 0.7355763 124 68 82 255 
0.0892368 -0.0516634 0.913848 0.4277411 -0.5417811 0.7235404 124 66 82 255 
0.0892368 -0.0513243 0.832094 0.2149932 0.8279591 -0.5179398 163 0 0 255 
0.0877036 -0.0485323 0.835225 0.3555063 0.7119736 -0.605565 167 0 0 255 
0.0892368 -0.0493353 0.835225 0.323108 0.7845356 -0.5292495 165 0 0 255 
0.0892368 -0.0485323 0.836302 0.4022793 0.7223455 -0.562484 165 0 0 255 
0.0892368 -0.0485323 0.915884 0.4094622 -0.5339136 0.7397818 126 73 93 255 
0.0882211 -0.0485323 0.916634 0.4187195 -0.5388262 0.7309859 123 79 105 255 
0.0878985 -0.0454012 0.838356 0.5817807 0.4880055 -0.6506779 172 0 0 255 
0.0892368 -0.0466164 0.838356 0.5091627 0.5832241 -0.6329322 168 0 0 255 
0.0892368 -0.0454012 0.839577 0.5721762 0.5549355 -0.6038716 170 0 0 255 
0.0892368 -0.0476072 0.916634 0.4228953 -0.5463139 0.7229804 128 77 103 255 
0.0892368 -0.0454012 0.91819 0.416995 -0.5618405 0.7144581 147 96 117 255 
0.0870132 -0.0454012 0.919765 0.3951642 -0.599956 0.6956278 172 137 163 255 
0.0890404 -0.04227 0.841487 0.6781147 0.3458066 -0.6485201 174 0 0 255 
0.0892368 -0.0425748 0.841487 0.6607091 0.3785447 -0.6482033 172 0 0 255 
0.0892368 -0.04227 0.8417 0.6764977 0.3439952 -0.6511669 174 0 0 255 
0.0892368 -0.0435975 0.919765 0.4340315 -0.5805134 0.6889274 182 138 158 255 
0.0892368 -0.04227 0.92075 0.4556764 -0.568204 0.6852031 181 130 147 255 
0.0864426 -0.04227 0.922896 0.3946763 -0.5677335 0.7224329 174 128 137 255 
0.0882632 -0.039139 0.841487 0.747848 0.10446 -0.6556001 181 0 0 255 
0.0892368 -0.039139 0.842655 0.7689564 0.1444093 -0.6227776 177 0 0 255 
0.0892368 -0.0397201 0.922896 0.4497672 -0.5445535 0.7079343 163 109 114 255 
0.0892368 -0.039139 0.92337 0.4518532 -0.5452504 0.7060671 160 103 105 255 
0.088253 -0.0360078 0.841487 0.7732544 -0.0603359 -0.6312189 189 0 0 255 
0.0892368 -0.0360078 0.842772 0.7790441 -0.04562025 -0.6253072 188 0 0 255 
0.0892368 -0.0360078 0.925933 0.413103 -0.5452047 0.7294502 135 49 38 255 
0.0891018 -0.0360078 0.926027 0.4128199 -0.5448046 0.7299094 133 47 35 255 
0.0886702 -0.0328768 0.841487 0.7748811 -0.1384338 -0.6167619 196 0 0 255 
0.0892368 -0.0328768 0.84221 0.7781356 -0.1394628 -0.6124174 195 0 0 255 
0.0892368 -0.0359028 0.926027 0.4127602 -0.5448004 0.7299463 133 45 35 255 
0.0892368 -0.0328768 0.927791 0.4121392 -0.5129297 0.7530236 147 42 33 255 
0.0872285 -0.0328768 0.929159 0.3996258 -0.5279506 0.749378 147 40 26 255 
0.0867205 -0.0297456 0.838356 0.7494726 -0.1398312 -0.6470998 202 2 0 255 
0.0892368 -0.0297456 0.841439 0.7741292 -0.1530616 -0.6142444 200 0 0 255 
0.0892368 -0.0299506 0.841487 0.7742115 -0.1532724 -0.6140881 198 0 0 255 
0.0892368 -0.0311822 0.929159 0.4206912 -0.535554 0.7322574 156 40 24 255 
0.0892368 -0.0297456 0.930231 0.4225464 -0.5785844 0.697635 158 42 26 255 
0.0873245 -0.0266145 0.838356 0.7351974 -0.1240996 -0.6663964 203 4 0 255 
0.0892368 -0.0266145 0.840706 0.7693145 -0.1387247 -0.6236271 198 0 0 255 
0.0892368 -0.0274736 0.93229 0.3832158 -0.5978694 0.7040581 158 38 24 255 
0.0892368 -0.0266145 0.933039 0.3719939 -0.6039947 0.7048482 161 43 31 255 
0.0877733 -0.0234834 0.838356 0.7076973 -0.05649689 -0.7042534 193 10 0 255 
0.0892368 -0.0234834 0.84003 0.7540087 -0.09295677 -0.6502538 196 2 0 255 
0.0892368 -0.0238357 0.935421 0.3529203 -0.6019588 0.716305 167 61 52 255 
0.0892368 -0.0234834 0.935732 0.3506653 -0.600944 0.7182619 168 66 56 255 
0.088063 -0.0203522 0.838356 0.6533356 -0.002028633 -0.7570657 188 11 0 255 
0.0892368 -0.0203522 0.839557 0.7167073 -0.01990984 -0.6970899 191 11 0 255 
0.0892368 -0.0203522 0.938067 0.3557057 -0.6013382 0.715448 191 110 114 255 
0.0885631 -0.0203522 0.938552 0.3599034 -0.6021751 0.7126393 196 117 126 255 
0.0878989 -0.0172212 0.838356 0.55272 0.1275736 -0.8235446 188 13 0 255 
0.0892368 -0.0172212 0.839436 0.6404764 0.09970789 -0.7614777 186 14 0 255 
0.0892368 -0.019836 0.938552 0.3630958 -0.5957891 0.7163774 196 121 130 255 
0.0892368 -0.0172212 0.940686 0.3627225 -0.6089963 0.7053764 158 103 117 255 
0.087804 -0.0172212 0.941683 0.3771487 -0.6081326 0.6985223 144 98 116 255 
0.0866574 -0.01409 0.838356 0.3898583 0.2885853 -0.8744879 182 11 0 255 
0.0892368 -0.01409 0.839787 0.5913017 0.1267458 -0.7964282 186 14 0 255 
0.0892368 -0.0161337 0.941683 0.3685549 -0.6062877 0.7046862 133 91 109 255 
0.0892368 -0.01409 0.943354 0.3708178 -0.6084572 0.7016224 133 96 117 255 
0.0869749 -0.01409 0.944814 0.3739288 -0.6038039 0.7039872 131 98 124 255 
0.0892368 -0.0109589 0.840508 0.5036365 0.2207226 -0.8352436 182 11 0 255 
0.0892368 -0.0124588 0.944814 0.3679641 -0.6162986 0.6962604 131 102 126 255 
0.0892368 -0.0109589 0.946182 0.3715981 -0.5984648 0.7097568 135 110 131 255 
0.0888213 -0.00782779 0.841487 0.3641247 0.3249948 -0.8728067 175 13 0 255 
0.0892368 -0.0081943 0.841487 0.4014134 0.3133126 -0.8606408 177 11 0 255 
0.0892368 -0.00782779 0.841612 0.4026375 0.315731 -0.8591839 177 13 0 255 
0.0892368 -0.00881315 0.947945 0.3698869 -0.5953665 0.7132477 144 119 140 255 
0.0892368 -0.00782779 0.948765 0.3827722 -0.5744482 0.7235294 145 121 138 255 
0.0892368 -0.00469664 0.842851 0.3042461 0.3791029 -0.873908 167 11 0 255 
0.0892368 -0.0048318 0.951076 0.3883592 -0.5944412 0.7041425 145 119 131 255 
0.0892368 -0.00469664 0.951186 0.3883623 -0.5944796 0.7041083 145 119 131 255 
0.0892368 -0.00156561 0.844329 0.2396713 0.4069215 -0.8814605 160 14 0 255 
0.0892368 -0.00156561 0.954117 0.3892913 -0.6066529 0.6931266 144 114 128 255 
0.0891142 -0.00156561 0.954207 0.3892924 -0.6066531 0.6931259 142 114 128 255 
0.0892368 -0.00100437 0.844618 0.2038076 0.4238659 -0.8824965 158 14 1 255 
0.0892368 0.00156554 0.845912 0.1552229 0.4467834 -0.8810734 147 11 4 255 
0.0892368 -0.00147121 0.954207 0.3831529 -0.6002905 0.7020293 142 112 126 255 
0.0892368 0.00156554 0.956291 0.3710205 -0.5740436 0.7299436 163 116 126 255 
0.0875933 0.00156554 0.957339 0.3664556 -0.5897852 0.7196275 167 121 131 255 
0.0892368 0.00469669 0.847578 0.1358621 0.443947 -0.8856933 133 2 17 255 
0.0892368 0.00266618 0.957339 0.3838001 -0.5961667 0.7051829 175 121 128 255 
0.0892368 0.00469669 0.959008 0.3784298 -0.6040327 0.7013811 168 103 105 255 
0.0867892 0.00469669 0.96047 0.3504767 -0.6215914 0.7005643 170 94 93 255 
0.0892368 0.00501075 0.84775 0.1342039 0.4490664 -0.8833622 133 2 17 255 
0.0892368 0.00782778 0.849262 0.1007354 0.4731334 -0.8752127 130 0 23 255 
0.0892368 0.00639056 0.96047 0.3815528 -0.6128252 0.6919991 158 75 70 255 
0.0892368 0.00782778 0.961558 0.3999253 -0.5793535 0.7102177 154 73 66 255 
0.0862084 0.00782778 0.963601 0.3041305 -0.5577306 0.7722961 156 61 49 255 
0.0879413 0.0109589 0.850881 0.07089309 0.4739479 -0.8776944 117 0 31 255 
0.0892368 0.010764 0.850881 0.07087674 0.4739477 -0.8776959 121 0 26 255 
0.0892368 0.0109589 0.850986 0.07154837 0.4741387 -0.8775382 121 0 26 255 
0.0892368 0.0101631 0.963601 0.3973481 -0.5378659 0.7435151 142 47 38 255 
0.0892368 0.0109589 0.964298 0.3859948 -0.5385783 0.7489602 140 45 36 255 
0.0892368 0.01409 0.852682 0.07663544 0.4802481 -0.8737785 114 0 29 255 
0.0892368 0.01409 0.966312 0.3425881 -0.5859619 0.7343583 147 40 28 255 
0.0886198 0.01409 0.966732 0.3460346 -0.5877859 0.7312782 145 36 23 255 
0.0892368 0.0165023 0.854012 0.04769943 0.475601 -0.878367 112 0 28 255 
0.0892368 0.0172211 0.854401 0.05426358 0.4680139 -0.8820536 110 0 28 255 
0.0892368 0.0145335 0.966732 0.3580248 -0.5885857 0.7248345 147 36 23 255 
0.0892368 0.0172211 0.969094 0.3777326 -0.6296421 0.6788732 156 31 17 255 
0.08812 0.0172211 0.969863 0.3780538 -0.6352171 0.6734795 156 28 16 255 
0.0892368 0.0203523 0.85604 0.0621359 0.4652939 -0.8829727 98 0 23 255 
0.0892368 0.018176 0.969863 0.380646 -0.635757 0.671507 161 29 14 255 
0.0892368 0.0203523 0.972188 0.3839 -0.6882215 0.6156071 174 28 8 255 
0.0880954 0.0203523 0.972994 0.3733334 -0.6950079 0.6144804 172 29 10 255 
0.0892368 0.022395 0.857143 0.04598891 0.4679873 -0.8825378 94 0 24 255 
0.0892368 0.0234834 0.857725 0.05039337 0.4655255 -0.8835986 91 0 24 255 
0.0892368 0.0211617 0.972994 0.3634093 -0.7098218 0.603396 177 29 8 255 
0.0892368 0.0233666 0.976125 0.3490724 -0.684565 0.6399369 182 35 14 255 
0.0892368 0.0234834 0.976227 0.3503114 -0.6677045 0.6568505 182 35 16 255 
0.0892368 0.0266145 0.85936 0.05359698 0.4674667 -0.8823844 84 0 28 255 
0.0892368 0.0266145 0.978338 0.2479443 -0.5795297 0.7763175 186 59 35 255 
0.0883027 0.0266145 0.979256 0.2536101 -0.5875924 0.768386 186 61 40 255 
0.0892368 0.0283408 0.860274 0.04428142 0.4730858 -0.8799028 77 0 29 255 
0.0892368 0.0297456 0.861024 0.05111187 0.4786984 -0.8764904 75 0 31 255 
0.0892368 0.0273361 0.979256 0.2512016 -0.5850368 0.7711223 188 65 40 255 
0.0892368 0.0297456 0.980732 0.2159519 -0.4495154 0.866776 193 65 42 255 
0.0892368 0.0328767 0.862768 0.06040763 0.4824651 -0.8738297 75 0 24 255 
0.0892368 0.0340093 0.863405 0.0525904 0.4786494 -0.8764297 70 0 20 255 
0.0892368 0.0360078 0.864509 0.05564455 0.4772483 -0.8770049 66 0 14 255 
0.0892368 0.0391389 0.866165 0.05598311 0.4733741 -0.8790807 70 1 21 255 
0.0892368 0.0398213 0.866536 0.05673219 0.4671759 -0.8823425 68 0 20 255 
0.0892368 0.0422701 0.867849 0.07468686 0.4659762 -0.8816394 66 0 13 255 
0.0892368 0.0454012 0.86947 0.07830527 0.4736409 -0.87723 59 0 8 255 
0.0892368 0.0457683 0.869667 0.07152326 0.4630413 -0.8834463 63 0 10 255 
0.0892368 0.0485323 0.871113 0.09553911 0.4695297 -0.8777325 84 1 20 255 
0.0886771 0.0516634 0.872798 0.08904164 0.4719433 -0.877121 82 2 31 255 
0.0892368 0.0515658 0.872798 0.0912416 0.4803324 -0.8723278 82 1 28 255 
0.0892368 0.0516634 0.872853 0.0912416 0.4803324 -0.8723278 82 1 28 255 
0.0892368 0.0547945 0.874499 0.1111947 0.4624415 -0.8796497 82 0 20 255 
0.0873398 0.0579257 0.87593 0.1015043 0.4631825 -0.8804311 70 0 21 255 
0.0892368 0.0575165 0.87593 0.1051011 0.455731 -0.8838909 82 0 20 255 
0.0892368 0.0579257 0.876143 0.1051204 0.456372 -0.8835577 84 0 20 255 
0.0892368 0.0610568 0.877722 0.1185913 0.4555278 -0.8822871 110 2 7 255 
0.0868023 0.0641878 0.879061 0.1005793 0.4686879 -0.8776192 102 4 2 255 
0.0892368 0.0636545 0.879061 0.1015568 0.4476038 -0.8884465 154 17 7 255 
0.0892368 0.0641878 0.87933 0.1009477 0.4476084 -0.8885136 161 20 5 255 
0.0892368 0.067319 0.880895 0.08279943 0.4290371 -0.8994839 191 24 0 255 
0.0871845 0.0704501 0.882192 0.05847595 0.3948735 -0.9168727 193 21 0 255 
0.0892368 0.0701949 0.882192 0.04480869 0.3474663 -0.9366212 193 16 0 255 
0.0892368 0.0704501 0.882301 0.04480231 0.346691 -0.9369088 193 14 0 255 
0.0892368 0.0735812 0.883271 -0.01138038 0.2347972 -0.9719777 200 8 0 255 
0.0892368 0.0767123 0.883748 -0.08595489 0.1395486 -0.9864776 209 14 0 255 
0.0892368 0.0798434 0.883793 -0.1276464 0.05008807 -0.9905542 219 35 0 255 
0.0892368 0.0829746 0.883755 -0.1229974 0.11691 -0.9854967 216 61 0 255 
0.0892368 0.0861057 0.884089 -0.05576817 0.2544015 -0.9654894 193 51 2 255 
0.0892368 0.0892368 0.885137 -0.008272737 0.4864901 -0.8736469 179 14 0 255 
0.0892368 0.0895197 0.885323 -0.009239915 0.4897705 -0.8718024 179 14 0 255 
0.0892368 0.0923679 0.887224 0.01742077 0.6156732 -0.7878091 170 17 0 255 
0.0892368 0.0936302 0.888454 0.08146629 0.674841 -0.7334526 165 21 0 255 
0.0892368 0.095499 0.890363 0.07268366 0.716499 -0.6937912 163 26 0 255 
0.0892368 0.0965186 0.891585 0.08755419 0.7276974 -0.6802872 161 26 0 255 
0.0892368 0.0986302 0.893954 0.09440561 0.7366632 -0.6696379 154 28 0 255 
0.0892368 0.0993077 0.894716 0.1138198 0.7110134 -0.6939057 151 28 0 255 
0.0892368 0.101761 0.897376 0.1157309 0.640925 -0.7588291 147 28 0 255 
0.0892368 0.102528 0.897847 0.1364333 0.5511392 -0.8231838 140 23 0 255 
0.0892368 0.104892 0.899227 0.09742191 0.2799693 -0.955053 119 11 2 255 
0.0892368 0.108023 0.898808 0.09715263 0.2893375 -0.9522843 112 49 45 255 
0.0896782 -0.117417 0.828963 0.9557932 -0.2765658 -0.09985387 149 0 0 255 
0.0899033 -0.117417 0.832094 0.9569004 -0.28684 -0.04543459 168 0 0 255 
0.0898748 -0.117417 0.835225 0.946361 -0.3217895 0.02919543 177 0 0 255 
0.089626 -0.117417 0.838356 0.8945271 -0.4448684 0.04374072 179 0 0 255 
0.0893921 -0.117417 0.841487 0.8364673 -0.5478565 -0.01325382 181 0 0 255 
0.0893491 -0.117417 0.844618 0.7743783 -0.6323779 -0.02089125 184 0 0 255 
0.0894273 -0.117417 0.84775 0.7312344 -0.6819283 -0.01643058 196 8 0 255 
0.0895864 -0.117417 0.850881 0.6725877 -0.7399482 0.0101244 219 31 0 255 
0.0895065 -0.117417 0.854012 0.6346145 -0.7696732 0.06976806 221 35 0 255 
0.0892712 -0.114286 0.822701 0.9381304 -0.2274048 -0.2611482 140 0 0 255 
0.0899506 -0.114286 0.825832 0.9604658 -0.2233966 -0.1661304 160 0 0 255 
0.0904141 -0.114286 0.828963 0.9580197 -0.2618918 -0.1166658 172 0 0 255 
0.0906313 -0.114286 0.832094 0.94573 -0.309816 -0.09802482 179 0 0 255 
0.0908136 -0.114286 0.835225 0.9173093 -0.3865604 -0.09547139 179 0 0 255 
0.0910778 -0.114286 0.838356 0.8516685 -0.5080236 -0.1287357 182 0 0 255 
0.0914913 -0.114286 0.841487 0.7755141 -0.6241094 -0.09521185 188 0 0 255 
0.0920975 -0.114286 0.844618 0.6794017 -0.7175438 -0.1534409 209 17 0 255 
0.0923679 -0.114666 0.84775 0.665167 -0.7406843 -0.0945499 225 35 0 255 
0.0923679 -0.114286 0.845877 0.675415 -0.7230069 -0.1451742 216 26 0 255 
0.0923679 -0.115146 0.850881 0.6388674 -0.7673831 -0.05451208 226 36 0 255 
0.0923679 -0.115159 0.854012 0.629185 -0.7739877 0.07119948 223 35 0 255 
0.0923679 -0.114728 0.857143 0.6206434 -0.7682067 0.1570357 221 33 0 255 
0.0923679 -0.114286 0.858594 0.6176088 -0.7546052 0.221654 221 33 0 255 
0.0917426 -0.114286 0.860274 0.5998905 -0.7467738 0.287159 221 33 0 255 
0.0901496 -0.114286 0.863405 0.5750953 -0.7478887 0.3315538 218 29 0 255 
0.0898812 -0.111155 0.822701 0.9514096 -0.1648635 -0.2600763 163 0 0 255 
0.0905302 -0.111155 0.825832 0.9487494 -0.2175856 -0.2291966 172 0 0 255 
0.0910715 -0.111155 0.828963 0.9330627 -0.3035485 -0.1930086 177 0 0 255 
0.0916536 -0.111155 0.832094 0.8640301 -0.437014 -0.2499413 179 0 0 255 
0.0923489 -0.111155 0.835225 0.7988904 -0.5552061 -0.2313444 184 0 0 255 
0.0923679 -0.112385 0.838356 0.7787394 -0.5861388 -0.2236205 189 0 0 255 
0.0923679 -0.111155 0.835291 0.7987747 -0.5549433 -0.2323728 184 0 0 255 
0.0923679 -0.113264 0.841487 0.7279385 -0.6607745 -0.182983 196 4 0 255 
0.0923679 -0.114015 0.844618 0.6799074 -0.7176375 -0.1507393 212 20 0 255 
0.0923679 -0.11377 0.860274 0.5989702 -0.7515427 0.2764384 221 33 0 255 
0.0923679 -0.112518 0.863405 0.5574149 -0.7481328 0.3599806 218 31 0 255 
0.0923679 -0.111362 0.866536 0.4634096 -0.6431519 0.6095959 212 35 1 255 
0.0923679 -0.111155 0.866655 0.4531893 -0.6265907 0.6340376 212 38 4 255 
0.0893517 -0.108024 0.819569 0.9258788 -0.1212586 -0.3578334 168 0 0 255 
0.0902868 -0.108024 0.822701 0.9274146 -0.1626471 -0.3368205 175 0 0 255 
0.0912023 -0.108024 0.825832 0.9173528 -0.2592084 -0.3021175 177 0 0 255 
0.0922296 -0.108024 0.828963 0.8393437 -0.4150784 -0.351016 179 0 0 255 
0.0923679 -0.109847 0.832094 0.8112373 -0.4992903 -0.3043078 184 0 0 255 
0.0923679 -0.108024 0.829328 0.8385602 -0.4146332 -0.3534062 181 0 0 255 
0.0923679 -0.111127 0.835225 0.7988904 -0.5552061 -0.2313444 184 0 0 255 
0.0923679 -0.108024 0.867655 0.4742848 -0.5896834 0.6537029 219 82 59 255 
0.0904248 -0.108024 0.869667 0.4529981 -0.473628 0.7552941 221 91 73 255 
0.0892368 -0.108024 0.870855 0.4344258 -0.4747182 0.765452 216 84 65 255 
0.0895679 -0.104892 0.819569 0.8759598 -0.1353905 -0.4629945 172 0 0 255 
0.0908549 -0.104892 0.822701 0.9090286 -0.2225319 -0.3523442 170 0 0 255 
0.092302 -0.104892 0.825832 0.7651552 -0.4568334 -0.4536968 181 0 0 255 
0.0923679 -0.107758 0.828963 0.8382033 -0.415367 -0.3533914 182 0 0 255 
0.0923679 -0.104892 0.825963 0.7651552 -0.4568334 -0.4536968 182 0 0 255 
0.090082 -0.101761 0.819569 0.8207627 -0.2405324 -0.5181629 170 0 0 255 
0.0921083 -0.101761 0.822701 0.7505158 -0.4235668 -0.5072643 189 0 0 255 
0.0923679 -0.104773 0.825832 0.7573189 -0.4581341 -0.4653829 182 0 0 255 
0.0923679 -0.101761 0.823086 0.7047956 -0.4588816 -0.5410089 191 0 0 255 
0.0913661 -0.0986301 0.819569 0.6912 -0.4017189 -0.60072 196 2 0 255 
0.0923679 -0.101322 0.822701 0.6789072 -0.4705884 -0.5635881 191 0 0 255 
0.0923679 -0.0986301 0.820723 0.6731701 -0.4480287 -0.588313 200 4 0 255 
0.0901441 -0.0954991 0.816438 0.6003673 -0.4147784 -0.6837528 205 16 2 255 
0.0923679 -0.0954991 0.818378 0.5761755 -0.4768042 -0.663837 226 47 5 255 
0.0923679 -0.0971721 0.819569 0.62612 -0.4555551 -0.6328059 212 26 2 255 
0.0923679 -0.0928426 0.816438 0.5140026 -0.4876847 -0.7056664 242 68 11 255 
0.0923679 -0.0923679 0.816118 0.5067645 -0.483705 -0.7135959 244 72 10 255 
0.0911088 -0.0892368 0.813307 0.473358 -0.4327083 -0.7672651 242 45 0 255 
0.0923679 -0.0892368 0.814078 0.4782842 -0.4609384 -0.7475159 242 49 0 255 
0.0923679 -0.0878557 0.813307 0.4624862 -0.4179724 -0.7819243 242 43 0 255 
0.0923679 -0.0861057 0.812398 0.4394437 -0.3720254 -0.8176101 244 40 0 255 
0.0903979 -0.0829745 0.810176 0.4330776 -0.2792657 -0.8570033 239 33 0 255 
0.0923679 -0.0829745 0.811136 0.4231051 -0.2858315 -0.8598155 239 35 0 255 
0.0922011 -0.0798435 0.810176 0.4195938 -0.2230563 -0.879879 237 29 0 255 
0.0923679 -0.0798435 0.810252 0.422261 -0.2244808 -0.8782392 237 31 0 255 
0.0893476 -0.0798435 0.882192 0.8395705 -0.5372764 -0.08034656 205 14 0 255 
0.0897026 -0.0798435 0.885323 0.7936735 -0.6078062 0.02557138 230 54 35 255 
0.0923679 -0.0794427 0.810176 0.4054255 -0.1974405 -0.8925511 235 29 0 255 
0.0923679 -0.0767123 0.809663 0.3896838 -0.1393982 -0.9103377 219 26 0 255 
0.0904065 -0.0767123 0.87593 0.8910931 -0.4321836 -0.1384569 198 11 0 255 
0.0905895 -0.0767123 0.879061 0.8809921 -0.4622478 -0.1008949 205 11 0 255 
0.0911274 -0.0767123 0.882192 0.8616595 -0.4813059 -0.160896 209 20 0 255 
0.091878 -0.0767123 0.885323 0.8216114 -0.5641283 -0.08193825 230 59 35 255 
0.0919619 -0.0767123 0.888454 0.7488559 -0.6306915 0.2035757 240 87 52 255 
0.0901936 -0.0767123 0.891585 0.5657385 -0.6456012 0.5129707 211 51 13 255 
0.0923679 -0.0735812 0.80928 0.3748606 -0.05752787 -0.9252945 205 23 0 255 
0.0918733 -0.0735812 0.87593 0.8902698 -0.42757 -0.1568554 198 10 0 255 
0.0922157 -0.0735812 0.879061 0.8689275 -0.459344 -0.1843045 205 10 0 255 
0.0923679 -0.0745729 0.882192 0.8427886 -0.4963937 -0.2080878 209 21 0 255 
0.0923679 -0.0735812 0.87975 0.8639013 -0.4751221 -0.1671339 205 11 0 255 
0.0923679 -0.0759542 0.885323 0.8194678 -0.5661755 -0.08898214 230 61 35 255 
0.0923679 -0.076202 0.888454 0.7504264 -0.6277253 0.2069328 240 86 51 255 
0.0923679 -0.074864 0.891585 0.6499608 -0.6098519 0.4534662 218 56 17 255 
0.0923679 -0.0735812 0.892894 0.5979613 -0.6363275 0.48737 216 54 16 255 
0.090323 -0.0735812 0.894716 0.5113409 -0.6044686 0.6108586 205 43 4 255 
0.0923679 -0.0704501 0.809192 0.3430192 0.0641283 -0.9371368 207 16 0 255 
0.0923679 -0.0733078 0.879061 0.8691418 -0.4592825 -0.1834452 205 10 0 255 
0.0923679 -0.0725855 0.87593 0.8791037 -0.4446202 -0.1717256 198 10 0 255 
0.0923679 -0.0720245 0.894716 0.5361288 -0.6150733 0.5781443 207 43 4 255 
0.0923679 -0.0704501 0.896411 0.4994071 -0.6114686 0.6137578 203 45 11 255 
0.0904598 -0.0704501 0.897847 0.4684587 -0.5911016 0.6566164 198 47 16 255 
0.0923679 -0.067319 0.809536 0.2441747 0.1907611 -0.9507833 214 11 0 255 
0.0923679 -0.0690109 0.897847 0.462764 -0.6017079 0.650997 202 45 13 255 
0.0923679 -0.067319 0.899097 0.4545921 -0.567 0.6869184 195 45 14 255 
0.0897049 -0.067319 0.900979 0.4277451 -0.5569625 0.7119178 177 52 24 255 
0.0895525 -0.0641879 0.810176 0.1221517 0.607084 -0.7851929 203 8 0 255 
0.0923679 -0.065453 0.810176 0.2976052 0.3910764 -0.8709136 209 11 0 255 
0.0923679 -0.0641879 0.810642 0.1965372 0.5069999 -0.8392403 207 10 0 255 
0.0923679 -0.0650302 0.900979 0.444562 -0.5477483 0.7087569 189 47 17 255 
0.0923679 -0.0641879 0.901635 0.4383854 -0.5499784 0.7108742 189 49 24 255 
0.0923679 -0.0610568 0.813231 0.04053499 0.7119105 -0.7010993 177 0 0 255 
0.0923679 -0.0610568 0.904093 0.4169491 -0.5774792 0.7019054 193 54 28 255 
0.092342 -0.0610568 0.90411 0.4169087 -0.5774752 0.7019327 191 54 28 255 
0.0923679 -0.0609965 0.813307 0.04053499 0.7119105 -0.7010993 177 0 0 255 
0.0923679 -0.0587432 0.816438 -0.03166838 0.8429918 -0.5369934 170 0 0 255 
0.0923679 -0.0579256 0.818058 -0.05953208 0.8739988 -0.4822676 168 0 0 255 
0.0923679 -0.061035 0.90411 0.4161509 -0.5775541 0.7023174 193 54 28 255 
0.0923679 -0.0579256 0.906809 0.4196196 -0.5984523 0.6824765 207 91 77 255 
0.0917541 -0.0579256 0.907241 0.4211285 -0.599811 0.680351 207 98 87 255 
0.0923679 -0.0572488 0.819569 -0.05999519 0.9054315 -0.4202316 167 0 0 255 
0.0923679 -0.0557901 0.822701 -0.05364198 0.9110308 -0.408834 165 0 0 255 
0.0923679 -0.0547945 0.825036 -0.01086954 0.9216799 -0.3877991 163 0 0 255 
0.0923679 -0.0574137 0.907241 0.4218873 -0.6020983 0.677856 207 93 80 255 
0.0923679 -0.0547945 0.909632 0.4121037 -0.5895473 0.6946974 188 98 96 255 
0.0912672 -0.0547945 0.910372 0.4128456 -0.5876476 0.6958655 193 114 119 255 
0.0923679 -0.0545314 0.825832 -0.02608715 0.928293 -0.3709335 163 0 0 255 
0.0923679 -0.0533522 0.828963 0.03557167 0.9222111 -0.3850473 163 0 0 255 
0.0909031 -0.0516634 0.832094 0.188427 0.8432674 -0.5033839 161 0 0 255 
0.0923679 -0.0519593 0.832094 0.1032943 0.8750134 -0.47295 161 0 0 255 
0.0923679 -0.0516634 0.832688 0.1744546 0.8610094 -0.4777324 161 0 0 255 
0.0923679 -0.0539517 0.910372 0.4089454 -0.5952198 0.6917204 182 98 98 255 
0.0923679 -0.0516634 0.911746 0.4202641 -0.535493 0.7325473 144 59 56 255 
0.0898875 -0.0516634 0.913503 0.4185588 -0.5328158 0.7354699 117 59 75 255 
0.0923679 -0.0504221 0.835225 0.209347 0.8622282 -0.4612334 161 0 0 255 
0.0923462 -0.0485323 0.838356 0.4044235 0.7722584 -0.4899578 161 0 0 255 
0.0923679 -0.0485427 0.838356 0.4038762 0.77048 -0.4931982 161 0 0 255 
0.0923679 -0.0485323 0.838373 0.4038762 0.77048 -0.4931982 161 0 0 255 
0.0923679 -0.0493471 0.913503 0.4223653 -0.5146742 0.7461353 105 31 38 255 
0.0923679 -0.0485323 0.914065 0.4475138 -0.5389764 0.7136077 112 40 47 255 
0.0913073 -0.0454012 0.841487 0.5914987 0.5883121 -0.5513784 167 0 0 255 
0.0923679 -0.0462924 0.841487 0.5517327 0.6502866 -0.5222245 163 0 0 255 
0.0923679 -0.0454012 0.842685 0.6011415 0.6140164 -0.511481 165 0 0 255 
0.0923679 -0.0454012 0.916514 0.432961 -0.5565051 0.709117 149 86 107 255 
0.0921864 -0.0454012 0.916634 0.4281783 -0.5523399 0.7152511 149 86 109 255 
0.0917263 -0.04227 0.844618 0.7188739 0.3896954 -0.5756369 168 0 0 255 
0.0923679 -0.0432566 0.844618 0.7311855 0.3991435 -0.55322 165 0 0 255 
0.0923679 -0.04227 0.845497 0.7463942 0.3598651 -0.5598149 167 0 0 255 
0.0923679 -0.0452451 0.916634 0.4273542 -0.5527749 0.7154077 151 89 110 255 
0.0923679 -0.04227 0.918918 0.429015 -0.553946 0.7135054 184 124 135 255 
0.0912139 -0.04227 0.919765 0.4373056 -0.5587855 0.7046437 184 137 154 255 
0.0907591 -0.039139 0.844618 0.7800844 0.1531902 -0.606631 175 0 0 255 
0.0923679 -0.039139 0.84688 0.8249336 0.1421912 -0.5470523 172 0 0 255 
0.0923679 -0.0412344 0.919765 0.4397314 -0.5563943 0.7050261 188 135 147 255 
0.0923679 -0.039139 0.921273 0.4465921 -0.5423375 0.7116359 175 109 110 255 
0.0901159 -0.039139 0.922896 0.4534554 -0.550049 0.7013019 158 100 103 255 
0.0906004 -0.0360078 0.844618 0.7980282 -0.04393459 -0.6010165 182 0 0 255 
0.0923679 -0.0360078 0.846964 0.8157822 -0.05285127 -0.5759392 179 0 0 255 
0.0923679 -0.0371383 0.922896 0.459336 -0.5479741 0.6990958 158 89 86 255 
0.0923679 -0.0360078 0.92363 0.4693387 -0.552694 0.6886585 156 82 77 255 
0.0910628 -0.0328768 0.844618 0.7947391 -0.1334122 -0.5921073 191 0 0 255 
0.0923679 -0.0328768 0.846435 0.8044603 -0.1374653 -0.5778814 188 0 0 255 
0.0923679 -0.033217 0.926027 0.4447929 -0.525238 0.7254545 140 36 23 255 
0.0923679 -0.0328768 0.926315 0.4400862 -0.5219755 0.7306611 142 38 23 255 
0.0892768 -0.0297456 0.841487 0.7745382 -0.1533936 -0.6136457 198 0 0 255 
0.0917372 -0.0297456 0.844618 0.7874731 -0.1626469 -0.5945017 193 0 0 255 
0.0923679 -0.0297456 0.845511 0.7919729 -0.1661777 -0.5875066 191 0 0 255 
0.0923679 -0.0297456 0.928176 0.384295 -0.5723262 0.7244033 161 38 21 255 
0.0909874 -0.0297456 0.929159 0.4028725 -0.5671268 0.7183738 161 38 21 255 
0.0898571 -0.0266145 0.841487 0.7771813 -0.1357369 -0.614463 198 0 0 255 
0.092362 -0.0266145 0.844618 0.7926707 -0.1460142 -0.5919062 196 0 0 255 
0.0923679 -0.0266145 0.844626 0.7926707 -0.1460142 -0.5919062 195 0 0 255 
0.0923679 -0.0286815 0.929159 0.3800639 -0.5997815 0.7041404 163 35 18 255 
0.0923679 -0.0266145 0.931085 0.3620135 -0.6309779 0.6861582 158 29 16 255 
0.090586 -0.0266145 0.93229 0.384553 -0.6160292 0.6874787 156 31 18 255 
0.0904242 -0.0234834 0.841487 0.7695341 -0.1184281 -0.6275285 198 2 0 255 
0.0923679 -0.0265762 0.844618 0.7926707 -0.1460142 -0.5919062 196 0 0 255 
0.0923679 -0.0234834 0.843993 0.794875 -0.125963 -0.5935546 196 1 0 255 
0.0923679 -0.0253589 0.93229 0.3553914 -0.6233875 0.6964804 156 29 14 255 
0.0923679 -0.0234834 0.933876 0.3701887 -0.5946071 0.7137246 174 61 49 255 
0.0897798 -0.0234834 0.935421 0.3531003 -0.6021012 0.7160966 170 66 56 255 
0.0908749 -0.0203522 0.841487 0.7576253 -0.07607824 -0.6482407 196 7 0 255 
0.0923679 -0.0203522 0.843337 0.7927309 -0.1053785 -0.6003941 196 2 0 255 
0.0923679 -0.0218053 0.935421 0.3780895 -0.5806052 0.7210727 191 86 82 255 
0.0923679 -0.0203522 0.936659 0.391613 -0.5965006 0.70059 184 93 98 255 
0.0911281 -0.0172212 0.841487 0.7467251 -0.01274086 -0.6650107 181 11 0 255 
0.0923679 -0.0172212 0.842915 0.7752258 -0.03607194 -0.6306536 186 7 0 255 
0.0923679 -0.0182086 0.938552 0.3789688 -0.6041849 0.7009588 172 114 128 255 
0.0923679 -0.0172212 0.939397 0.3815624 -0.6062972 0.6977205 163 110 124 255 
0.0911547 -0.01409 0.841487 0.6653572 0.05673166 -0.7443663 186 13 0 255 
0.0923679 -0.01409 0.842767 0.7469177 0.01760034 -0.6646836 186 11 0 255 
0.0923679 -0.0145317 0.941683 0.3810163 -0.6059244 0.6983425 119 86 105 255 
0.0923679 -0.01409 0.942078 0.3854609 -0.606559 0.6953459 119 89 109 255 
0.0906787 -0.0109589 0.841487 0.5599914 0.1745865 -0.8098947 186 13 0 255 
0.0923679 -0.0109589 0.842867 0.6481063 0.1482212 -0.7469864 184 13 0 255 
0.0923679 -0.0109589 0.944738 0.3870895 -0.5875124 0.7106271 135 110 131 255 
0.092258 -0.0109589 0.944814 0.3882101 -0.5875366 0.7099955 135 110 131 255 
0.0923679 -0.00782779 0.843402 0.6332095 0.1647366 -0.7562458 186 14 0 255 
0.0923679 -0.0108743 0.944814 0.3871618 -0.5875888 0.7105246 135 110 131 255 
0.0923679 -0.00782779 0.947089 0.3880816 -0.5661467 0.727235 145 119 131 255 
0.0909451 -0.00782779 0.947945 0.380799 -0.5656755 0.7314392 144 121 137 255 
0.0923679 -0.00469664 0.844237 0.5540115 0.2968667 -0.7777798 182 13 0 255 
0.0923679 -0.00687603 0.947945 0.3906337 -0.5767779 0.7174486 149 121 133 255 
0.0923679 -0.00469664 0.949476 0.3830164 -0.5795916 0.7192858 151 119 130 255 
0.0894245 -0.00469664 0.951076 0.3883496 -0.5943994 0.7041831 145 117 131 255 
0.0901213 -0.00156561 0.844618 0.2875994 0.4200965 -0.8607006 163 14 0 255 
0.0923679 -0.00368027 0.844618 0.5069759 0.3014217 -0.8075397 179 13 0 255 
0.0923679 -0.00156561 0.845369 0.4465931 0.3351381 -0.8296005 172 14 0 255 
0.0923679 -0.00283926 0.951076 0.3896734 -0.6059048 0.6935662 144 117 126 255 
0.0923679 -0.00156561 0.952295 0.4037915 -0.5961431 0.6939494 147 116 128 255 
0.0923679 0.00156554 0.846681 0.3795098 0.3814601 -0.8428882 163 13 0 255 
0.0923679 0.000783049 0.954207 0.4055225 -0.5748385 0.7107124 151 110 124 255 
0.0923679 0.00156554 0.954762 0.4037907 -0.5730811 0.7131137 154 109 121 255 
0.0900995 0.00469669 0.84775 0.1803877 0.4430565 -0.8781579 138 5 11 255 
0.0923679 0.0037587 0.84775 0.3431447 0.4112051 -0.8444892 158 13 0 255 
0.0923679 0.00469669 0.848199 0.2795145 0.4074984 -0.8693773 156 14 0 255 
0.0923679 0.00462068 0.957339 0.3888759 -0.6067647 0.693262 177 109 110 255 
0.0923679 0.00469669 0.957409 0.3844756 -0.6059429 0.6964279 177 109 110 255 
0.0923679 0.00782778 0.849763 0.2376039 0.4542538 -0.8586023 154 8 0 255 
0.0923679 0.00782778 0.960221 0.3934457 -0.5687283 0.7223217 145 59 51 255 
0.0919875 0.00782778 0.96047 0.3967966 -0.5735586 0.716647 142 56 47 255 
0.0923679 0.00996023 0.850881 0.1971612 0.4559416 -0.8678967 147 4 0 255 
0.0923679 0.0109589 0.851402 0.193863 0.4421014 -0.8757645 144 4 0 255 
0.0923679 0.00814586 0.96047 0.4005254 -0.5674689 0.7194153 144 56 47 255 
0.0923679 0.0109589 0.96216 0.4159083 -0.5438039 0.7289016 156 61 52 255 
0.0904276 0.0109589 0.963601 0.3671613 -0.5530222 0.7479031 138 42 31 255 
0.0923679 0.01409 0.853059 0.1686431 0.4717501 -0.8654544 140 2 5 255 
0.0923679 0.0124883 0.963601 0.4145274 -0.5477319 0.726744 149 47 36 255 
0.0923679 0.01409 0.964928 0.412211 -0.5668349 0.7132884 153 45 33 255 
0.0923679 0.0158725 0.854012 0.1562575 0.451246 -0.8786129 137 2 7 255 
0.0923679 0.0172211 0.854706 0.1500178 0.4442523 -0.8832523 135 1 8 255 
0.0923679 0.016408 0.966732 0.3997165 -0.587629 0.7035047 158 33 16 255 
0.0923679 0.0172211 0.96759 0.4015843 -0.6118733 0.6814258 161 28 11 255 
0.0923679 0.0203523 0.856341 0.1265488 0.4652385 -0.8760927 126 0 11 255 
0.0923679 0.019834 0.969863 0.399206 -0.6389892 0.6575161 175 29 5 255 
0.0923679 0.0203523 0.970409 0.3746831 -0.6566774 0.6545131 177 29 5 255 
0.0923679 0.0218965 0.857143 0.1236221 0.4570382 -0.8808143 123 0 14 255 
0.0923679 0.0234834 0.857955 0.1241752 0.4551742 -0.8817012 121 0 17 255 
0.0923679 0.0226623 0.972994 0.3804257 -0.7220348 0.5778772 179 28 2 255 
0.0923679 0.0234834 0.973952 0.3523366 -0.7354956 0.5787099 179 35 8 255 
0.0894843 0.0234834 0.976125 0.3503159 -0.6676983 0.6568545 182 35 14 255 
0.0923679 0.0266145 0.859621 0.1134942 0.4663204 -0.8773052 103 0 17 255 
0.0923679 0.0249499 0.976125 0.285307 -0.7087628 0.6451785 182 45 20 255 
0.0923679 0.0266145 0.977196 0.3044111 -0.6373673 0.7078819 186 56 31 255 
0.0923679 0.0278146 0.860274 0.1014309 0.4652954 -0.8793247 102 0 17 255 
0.0923679 0.0297456 0.861307 0.1149796 0.467878 -0.8762819 103 0 20 255 
0.0923679 0.0281927 0.979256 0.2810791 -0.5732833 0.7696368 186 68 45 255 
0.0923679 0.0297456 0.980664 0.2664585 -0.5288934 0.8057739 189 66 42 255 
0.0923679 0.0328767 0.863012 0.1063286 0.4798517 -0.8708826 107 0 20 255 
0.0923679 0.0335857 0.863405 0.09345822 0.4757563 -0.8745978 109 0 17 255 
0.0923679 0.0360078 0.864733 0.1062818 0.4716847 -0.8753386 110 0 14 255 
0.0923679 0.0391389 0.866462 0.1043324 0.4809875 -0.8704975 94 2 14 255 
0.0923679 0.0392728 0.866536 0.09863822 0.4774113 -0.873126 94 1 14 255 
0.0923679 0.0422701 0.868162 0.1236403 0.4704755 -0.873708 109 2 14 255 
0.0907927 0.0454012 0.869667 0.1159003 0.4640456 -0.8781964 84 4 10 255 
0.0923679 0.0450337 0.869667 0.1481077 0.4555328 -0.877812 112 8 13 255 
0.0923679 0.0454012 0.869867 0.1451775 0.4691883 -0.8710831 112 10 11 255 
0.0923679 0.0485323 0.871552 0.1582799 0.4728469 -0.8668122 110 8 13 255 
0.0923679 0.050779 0.872798 0.1605685 0.4710603 -0.8673638 107 4 11 255 
0.0923679 0.0516634 0.873283 0.1508658 0.4706194 -0.8693428 109 4 10 255 
0.0923679 0.0547945 0.874979 0.1611669 0.4651624 -0.8704305 117 4 5 255 
0.0923679 0.0565422 0.87593 0.1599832 0.4594637 -0.8736695 124 4 4 255 
0.0923679 0.0579257 0.876656 0.1601003 0.4586445 -0.8740785 131 4 2 255 
0.0923679 0.0610568 0.878203 0.1536047 0.4460169 -0.8817452 172 18 0 255 
0.0923679 0.0627482 0.879061 0.1433907 0.4366864 -0.8881127 186 20 0 255 
0.0923679 0.0641878 0.879785 0.1397325 0.4239491 -0.8948419 191 20 0 255 
0.0923679 0.067319 0.881272 0.08695994 0.40439 -0.9104431 193 16 0 255 
0.0923679 0.069693 0.882192 0.03463595 0.3293151 -0.9435846 196 11 0 255 
0.0923679 0.0704501 0.882468 0.03304838 0.2974638 -0.9541609 196 11 0 255 
0.0923679 0.0735812 0.883203 -0.02431538 0.1433906 -0.9893674 203 8 0 255 
0.0923679 0.0767123 0.883404 -0.102285 0.05020482 -0.9934874 214 21 0 255 
0.0923679 0.0798434 0.883303 -0.1331844 0.02920371 -0.9906609 223 51 0 255 
0.0923679 0.0829746 0.883297 -0.1090736 0.1743774 -0.9786192 209 56 1 255 
0.0923679 0.0861057 0.883873 -0.02735587 0.308418 -0.9508576 189 40 0 255 
0.0923679 0.0892368 0.885168 0.05951651 0.5479217 -0.8344097 175 14 0 255 
0.0923679 0.0894443 0.885323 0.05951651 0.5479217 -0.8344097 175 16 0 255 
0.0923679 0.0923679 0.887674 0.08932229 0.6578434 -0.7478393 168 23 0 255 
0.0923679 0.0931084 0.888454 0.1348608 0.684036 -0.7168733 168 24 0 255 
0.0923679 0.095499 0.890871 0.1272971 0.717968 -0.6843373 163 26 0 255 
0.0923679 0.0960976 0.891585 0.1286661 0.7183985 -0.6836291 161 26 0 255 
0.0923679 0.0986302 0.894478 0.1332614 0.7330261 -0.6670189 154 28 0 255 
0.0923679 0.0988467 0.894716 0.1360201 0.7323967 -0.6671534 153 28 0 255 
0.0915284 0.101761 0.897847 0.1464061 0.6598129 -0.7370293 147 28 0 255 
0.0923679 0.101588 0.897847 0.1333758 0.6439729 -0.7533325 147 28 0 255 
0.0923679 0.101761 0.898014 0.1343186 0.6437294 -0.753373 147 28 0 255 
0.0923679 0.104892 0.89963 0.1862419 0.3042304 -0.9342151 119 11 4 255 
0.0923679 0.108023 0.899154 0.1865183 0.3074022 -0.933121 110 45 42 255 
